ply
format ascii 1.0
comment VCGLIB generated
element vertex 1804
property float x
property float y
property float z
element face 0
property list uchar int vertex_indices
end_header
-84.2444 -5.93156 -62.449
-83.6239 -6.10946 -61.5099
-82.9879 -6.29186 -60.5822
-81.9556 -5.97727 -59.8015
-81.9556 -5.97727 -59.8015
-80.351 -5.54383 -58.0095
-79.6631 -5.76733 -57.1321
-79.6631 -5.76733 -57.1321
-78.9608 -5.99553 -56.2675
-77.9761 -5.42701 -55.4158
-77.2497 -5.67711 -54.5775
-76.5096 -5.93194 -53.7527
-75.3142 -5.86607 -53.0254
-74.5546 -6.14252 -52.2311
-74.2789 -5.40514 -52.2311
-73.5115 -5.69974 -51.451
-72.3364 -5.67356 -50.7886
-71.5514 -5.9907 -50.0396
-71.2676 -5.30556 -50.0396
-70.0655 -5.32506 -49.3919
-69.2707 -5.6789 -48.6747
-68.1768 -5.40616 -47.9729
-68.0573 -5.74368 -48.0452
-66.9575 -5.50991 -47.3607
-66.9575 -5.50991 -47.3607
-65.7033 -5.68367 -46.7707
-65.2682 -5.4835 -46.8434
-64.1578 -5.34716 -46.1938
-62.9429 -5.60487 -45.6467
-62.626 -5.06692 -45.6467
-61.4052 -5.36469 -45.1088
-61.4052 -5.36469 -45.1088
-60.1861 -5.7111 -44.5886
-59.8609 -5.21981 -44.5886
-58.6276 -5.68882 -44.0893
-58.2959 -5.22379 -44.0893
-57.1929 -5.33971 -43.5264
-56.7207 -5.37554 -43.6129
-55.6284 -5.54854 -43.0683
-54.5428 -5.75957 -42.5406
-54.2056 -5.36474 -42.5406
-53.3591 -5.20417 -42.6568
-52.7933 -5.2621 -42.0299
-51.9485 -5.15104 -42.1477
-51.078 -5.23545 -42.2797
-50.0529 -5.62894 -41.7898
-49.1842 -5.28154 -41.1811
-48.8299 -4.97892 -41.1811
-47.7778 -5.44076 -40.0644
-47.3669 -5.13347 -39.3682
-46.4571 -5.31967 -38.8586
-45.4245 -5.52115 -37.6816
-44.5222 -5.75802 -37.1851
-43.7014 -5.60611 -36.5216
-42.8312 -5.7179 -35.6863
-41.7049 -5.94132 -35.0581
-40.88 -6.27397 -34.4289
-39.8725 -6.27178 -33.7443
-39.1106 -6.24241 -32.8965
-38.5506 -6.16127 -32.0194
-37.9795 -5.85115 -32.0194
-36.8452 -6.32638 -30.8445
-36.1976 -6.03806 -30.8445
-35.5315 -5.7956 -30.8445
-34.8501 -5.60021 -30.8445
-33.9621 -6.55644 -30.677
-33.3376 -6.46867 -30.677
-32.6197 -5.6362 -29.4846
-31.9329 -5.65418 -29.4846
-31.2503 -5.73196 -29.4846
-30.577 -5.86893 -29.4846
-29.9183 -6.06407 -29.4846
-28.8242 -5.29433 -29.6318
-28.26 -5.56952 -29.6318
-27.7823 -6.40548 -30.8445
-26.7563 -5.69136 -31.0315
-26.253 -5.99975 -31.0315
-25.1118 -5.43271 -31.238
-24.5852 -5.83169 -32.2458
-24.0159 -6.25292 -32.2458
-23.4998 -6.26869 -33.1429
-22.5352 -6.41474 -34.011
-21.8272 -6.20463 -34.715
-21.143 -6.09647 -35.6863
-20.2004 -6.01632 -36.5216
-18.865 -5.14082 -37.5447
-18.5023 -5.89586 -38.4668
-17.5356 -5.67474 -38.959
-16.8581 -5.55125 -39.5476
-16.1978 -5.68802 -40.8617
-14.8652 -5.46141 -41.3171
-14.5071 -5.75659 -41.3171
-13.8763 -5.79418 -41.92
-12.8702 -5.3671 -42.4077
-11.7568 -5.5786 -42.2797
-11.4012 -5.92801 -42.2797
-10.3512 -5.60698 -42.7868
-9.62901 -5.58579 -42.6568
-8.96339 -5.75957 -42.5406
-8.20761 -5.74424 -43.1829
-7.12185 -5.55279 -43.7258
-6.78545 -5.37554 -43.6129
-5.68776 -5.24076 -44.1742
-5.34893 -5.69865 -44.1742
-3.90031 -5.63078 -44.6688
-3.56492 -5.7111 -44.5886
-2.45318 -5.7111 -45.186
-2.11897 -5.88207 -45.1088
-0.983136 -5.60487 -45.6467
0.129074 -5.70217 -46.2791
0.103446 -6.03748 -46.3548
1.23721 -5.83824 -46.9275
1.57144 -6.0668 -46.8434
2.37276 -5.6585 -47.5089
3.51714 -5.48834 -48.1208
3.81443 -6.11163 -48.1208
4.61001 -5.74065 -48.819
5.69341 -6.03094 -49.5325
6.01176 -6.32563 -49.4604
6.79882 -5.99154 -50.1907
7.945 -6.02172 -50.8711
8.71571 -5.71033 -51.6328
8.99752 -6.42574 -51.6328
9.76102 -6.13266 -52.4089
10.8803 -6.24454 -53.1227
11.6248 -5.97356 -53.9289
12.356 -5.70743 -54.7489
12.632 -6.48672 -54.7489
13.354 -6.23809 -55.5823
14.0622 -5.99424 -56.4289
15.138 -6.19878 -57.2019
15.7149 -6.35422 -58.1607
16.3842 -6.13677 -59.0453
17.4228 -6.40802 -59.8623
18.0675 -6.21093 -60.7733
19.1931 -6.20941 -62.7026
19.5775 -6.73169 -62.6299
20.1788 -6.55928 -63.5749
21.3333 -6.22822 -65.497
21.8862 -6.06968 -66.4734
22.8433 -6.4418 -67.4245
23.2098 -6.73104 -68.4557
24.2037 -6.46473 -70.4752
25.0955 -6.90519 -71.4763
25.5654 -6.09986 -73.5686
26.6504 -6.90442 -75.67
27.4026 -6.71689 -77.7998
28.2536 -6.84651 -81.0675
29.0774 -6.64112 -84.3503
29.7333 -6.47758 -87.673
30.3194 -6.75679 -87.697
-93.2423 -5.47358 -78.7991
-92.4832 -6.06394 -76.9305
-91.4739 -5.20354 -74.7857
-91.068 -5.30473 -73.7239
-90.6351 -5.73784 -72.9888
-89.4755 -4.96114 -70.9039
-89.001 -5.08829 -69.874
-88.0002 -5.35644 -67.8406
-87.4743 -5.49737 -66.8377
-86.6402 -4.98826 -66.1115
-86.0837 -5.14784 -65.1287
-84.9216 -5.48105 -63.1941
-84.5775 -4.84188 -63.3992
-83.9761 -5.02577 -62.449
-82.726 -5.40794 -60.5822
-81.8042 -4.73818 -59.6662
-81.6825 -5.11118 -59.8015
-81.0242 -5.32509 -58.8994
-80.0706 -4.70581 -58.0095
-79.3867 -4.94129 -57.1321
-78.6885 -5.18171 -56.2675
-77.694 -4.63046 -55.4158
-76.9721 -4.8932 -54.5775
-76.2366 -5.16091 -53.7527
-75.0335 -5.11547 -53.0254
-75.0335 -5.11547 -53.0254
-73.9904 -4.67268 -52.2311
-73.2282 -4.98062 -51.451
-72.1633 -4.59304 -50.6854
-72.0469 -4.97476 -50.7886
-70.9719 -4.62547 -50.0396
-70.1867 -4.97508 -49.3055
-68.9765 -5.03326 -48.6747
-68.6711 -4.39286 -48.6747
-67.878 -4.77965 -47.9729
-67.4504 -4.49931 -48.0452
-66.195 -4.67556 -47.4379
-65.741 -4.46957 -47.5089
-64.9544 -4.90558 -46.8434
-63.8418 -4.78864 -46.1938
-63.4147 -4.59301 -46.2791
-62.1931 -4.87236 -45.7238
-61.8583 -4.34692 -45.7238
-61.0791 -4.85292 -45.1088
-60.7442 -4.34692 -45.1088
-59.5272 -4.73427 -44.5886
-59.0609 -4.66795 -44.6688
-57.9561 -4.76461 -44.0893
-56.8553 -4.89977 -43.5264
-56.3765 -4.94276 -43.6129
-56.0248 -4.51606 -43.6129
-55.0687 -4.2495 -42.9803
-53.8615 -4.97587 -42.5406
-53.5108 -4.59305 -42.5406
-52.4477 -4.89789 -42.0299
-51.5914 -4.8002 -42.1477
-51.2284 -4.45565 -42.1477
-50.3371 -4.56834 -42.2797
-49.4696 -4.2166 -41.6557
-48.9675 -4.36711 -41.0603
-47.5393 -4.75301 -39.973
-47.0441 -4.86743 -39.3682
-46.2248 -4.68438 -38.7654
-45.4288 -4.56899 -38.1745
-44.5946 -4.46707 -37.5447
-44.0724 -4.52872 -36.8642
-42.9181 -4.74787 -36.2893
-42.0576 -4.85597 -35.3631
-40.9809 -5.03314 -34.715
-40.2066 -5.17904 -34.011
-39.4434 -5.1538 -33.1429
-38.2749 -5.79803 -32.8965
-37.59 -5.6612 -32.0194
-36.994 -5.40205 -32.0194
-36.4332 -4.92977 -31.0315
-35.3624 -5.7423 -30.8445
-34.6777 -5.55883 -30.8445
-34.1567 -5.45282 -30.8445
-33.2783 -5.33718 -30.8445
-32.5703 -5.30008 -30.8445
-31.8549 -4.53869 -29.6318
-31.0754 -4.62751 -29.6318
-30.4592 -4.74729 -29.6318
-29.7031 -4.95697 -29.6318
-29.1132 -5.17167 -29.6318
-28.1699 -5.00188 -31.0315
-27.6287 -5.23723 -31.0315
-27.1005 -5.50058 -31.0315
-26.0129 -4.83623 -31.238
-25.377 -5.31747 -32.2458
-24.9766 -5.56767 -32.2458
-23.7414 -5.07193 -32.4916
-23.055 -5.22084 -33.4087
-22.3264 -5.18699 -34.2972
-21.6471 -5.39044 -35.3631
-20.7333 -5.3288 -36.2893
-20.0811 -5.11118 -37.0481
-19.1537 -4.91114 -37.5447
-18.1752 -4.826 -38.8586
-17.2092 -4.60707 -39.3682
-16.2236 -4.40457 -39.8849
-16.2056 -4.91007 -40.7238
-14.8675 -4.68254 -41.1811
-14.5079 -4.97892 -41.1811
-13.87 -4.99737 -41.7898
-12.8593 -4.56834 -42.2797
-12.4859 -4.89866 -42.2797
-11.0802 -4.87797 -42.7868
-10.7125 -5.23929 -42.7868
-9.27007 -4.54335 -43.1829
-8.56706 -4.72708 -43.0683
-7.83053 -4.70822 -43.7258
-7.48144 -4.51606 -43.6129
-6.38912 -4.34305 -44.1742
-5.67931 -4.76461 -44.0893
-4.57449 -4.66795 -44.6688
-4.2238 -4.73427 -44.5886
-3.87598 -4.87236 -44.5102
-2.77853 -5.20041 -45.186
-1.64814 -4.87236 -45.7238
-1.64814 -4.87236 -45.7238
-0.556744 -5.27799 -46.4293
0.574282 -5.02777 -47.0018
0.924068 -5.2615 -46.9275
2.06186 -5.06128 -47.5089
2.84556 -4.64458 -48.19
3.20901 -4.87033 -48.1208
4.30612 -5.10353 -48.819
5.08402 -4.72412 -49.5325
5.42382 -5.0051 -49.4604
6.50466 -5.31502 -50.1907
6.58409 -4.97635 -50.1241
7.6563 -5.32474 -50.8711
8.42146 -4.99995 -51.6328
8.79967 -5.36136 -51.5523
9.55991 -5.0542 -52.3304
10.6004 -5.49586 -53.1227
11.3401 -5.21193 -53.9289
12.0665 -4.93308 -54.7489
12.456 -5.32758 -54.6558
13.7775 -5.19007 -56.4289
14.4673 -4.93898 -57.2884
14.8626 -5.37551 -57.2019
15.5441 -5.14082 -58.0763
16.4945 -5.75802 -58.9632
17.1507 -5.54483 -59.8623
17.7918 -5.33652 -60.7733
19.3107 -5.83085 -62.6299
19.9088 -5.64797 -63.5749
20.4911 -5.46994 -64.5307
21.0574 -5.29682 -65.497
22.0393 -5.6378 -66.4348
22.5776 -5.48346 -67.4245
23.0991 -5.33391 -68.4238
24.3647 -6.03417 -70.45
24.8375 -5.90747 -71.4763
25.7309 -5.66808 -73.5538
26.3855 -5.88012 -75.67
27.1343 -5.67949 -77.7998
28.1217 -5.41491 -81.0419
28.8016 -5.5748 -84.3503
29.878 -6.09971 -87.6644
30.058 -5.66792 -87.697
-92.9873 -4.41137 -78.7991
-92.3023 -4.58216 -76.6264
-91.5441 -4.77119 -74.4796
-90.8031 -4.28029 -73.7239
-90.3812 -4.39333 -72.6695
-89.4845 -4.6336 -70.5845
-88.7269 -4.09996 -69.874
-87.7309 -4.38554 -67.8406
-87.2075 -4.53562 -66.8377
-86.6674 -4.69051 -65.8445
-85.806 -4.21036 -65.1287
-85.236 -4.38461 -64.1561
-84.6499 -4.5638 -63.1941
-83.692 -4.1248 -62.449
-83.0781 -4.32424 -61.5099
-82.4488 -4.52872 -60.5822
-81.3944 -4.24999 -59.8015
-80.8595 -4.101 -58.7621
-79.7756 -3.87282 -58.0095
-79.0959 -4.12019 -57.1321
-78.402 -4.37277 -56.2675
-77.694 -4.63046 -55.4158
-76.6809 -4.11426 -54.5775
-75.9501 -4.39476 -53.7527
-75.4763 -4.07232 -53.8338
-74.9114 -3.93228 -52.9417
-73.6891 -3.94536 -52.2311
-72.9324 -4.26656 -51.451
-72.1633 -4.59304 -50.6854
-71.8609 -3.89762 -50.6854
-70.6644 -3.95065 -50.0396
-69.8854 -4.31391 -49.3055
-69.5725 -3.6581 -49.3055
-68.6711 -4.39286 -48.6747
-67.5683 -4.15846 -47.9729
-67.1307 -3.88525 -48.0452
-66.6512 -3.65092 -48.1208
-65.4094 -3.88357 -47.5089
-65.4094 -3.88357 -47.5089
-64.1938 -4.12486 -46.9275
-63.0801 -4.04698 -46.2791
-62.736 -3.50688 -46.2791
-61.5145 -3.82739 -45.7238
-61.5145 -3.82739 -45.7238
-60.2953 -4.19645 -45.186
-59.9437 -3.70349 -45.186
-58.7113 -4.1955 -44.6688
-58.3535 -3.72923 -44.6688
-57.2528 -3.86439 -44.0893
-56.3848 -3.47038 -44.1742
-55.6656 -4.09556 -43.6129
-54.7124 -3.84679 -42.9803
-54.2216 -3.93018 -43.0683
-53.1534 -4.21642 -42.5406
-52.7894 -3.84608 -42.5406
-51.3734 -3.84221 -42.0299
-50.8593 -4.11749 -42.1477
-50.4844 -3.78581 -42.1477
-49.6091 -3.60241 -41.5364
-48.7186 -3.59037 -40.9666
-47.827 -3.67915 -40.4164
-46.7841 -4.24981 -39.2687
-46.0036 -4.06759 -38.6667
-45.1188 -4.33962 -38.1745
-44.2942 -4.25281 -37.5447
-43.4554 -4.4991 -37.0481
-42.64 -4.5638 -36.2893
-42.0837 -3.9123 -36.0104
-40.9793 -4.20804 -35.3631
-40.5024 -4.0753 -34.2972
-39.7381 -4.05424 -33.4087
-38.5309 -4.68886 -33.1429
-37.8455 -4.55487 -32.2458
-37.1912 -4.28386 -32.2458
-36.2489 -4.86086 -31.0315
-35.5005 -4.6177 -31.0315
-34.9291 -4.46992 -31.0315
-34.1567 -4.31978 -31.0315
-33.3757 -4.22388 -31.0315
-32.5899 -4.1827 -31.0315
-31.8031 -4.19643 -31.0315
-31.2147 -4.24274 -31.0315
-30.4355 -4.35225 -31.0315
-29.6658 -4.51585 -31.0315
-29.097 -4.67358 -31.0315
-28.353 -4.92977 -31.0315
-27.8077 -5.15563 -31.0315
-26.7692 -4.41704 -31.238
-26.1992 -4.7265 -31.238
-25.7859 -5.0814 -32.2458
-24.5883 -4.5007 -32.4916
-24.1598 -4.77892 -32.4916
-23.0576 -4.68449 -34.2972
-21.9356 -4.11323 -34.6025
-21.2756 -4.31142 -35.6872
-20.6489 -4.04564 -36.6323
-19.7298 -4.02979 -37.4089
-18.8035 -3.83337 -37.923
-18.5078 -4.20058 -38.7654
-17.541 -4.35245 -39.3682
-16.5643 -4.13358 -39.8849
-16.2417 -4.29804 -40.6016
-15.2652 -3.77883 -41.0603
-14.2412 -3.90916 -41.6557
-13.623 -3.92749 -42.2797
-13.2383 -4.24458 -42.2797
-12.2203 -3.83326 -42.7868
-10.796 -3.81736 -43.3107
-10.4098 -4.18381 -43.3107
-9.63801 -4.15562 -43.1829
-8.92235 -4.3255 -43.0683
-8.19582 -4.29534 -43.7258
-7.84058 -4.09556 -43.6129
-6.75144 -3.90352 -44.1742
-5.65627 -3.7496 -44.7521
-4.92408 -4.1955 -44.6688
-4.56592 -4.25463 -44.5886
-3.45571 -4.19645 -45.186
-2.70938 -4.07944 -45.8768
-2.34414 -4.17705 -45.7996
-1.23257 -4.19645 -46.4293
-0.10026 -3.90514 -47.0018
0.267831 -4.12486 -46.9275
1.37817 -4.24157 -47.5916
1.74059 -4.46957 -47.5089
2.51689 -4.03926 -48.19
2.89014 -4.25779 -48.1208
3.99115 -4.47181 -48.819
4.76232 -4.07888 -49.5325
5.11266 -4.35273 -49.4604
6.27735 -4.30329 -50.1241
7.35549 -4.63291 -50.8711
7.35549 -4.63291 -50.8711
8.11486 -4.29481 -51.6328
9.25942 -4.32875 -52.3304
10.0016 -4.01373 -53.1227
10.3074 -4.75218 -53.1227
11.042 -4.45538 -53.9289
12.0665 -4.93308 -54.7489
12.8806 -4.27687 -55.4913
13.8811 -4.80889 -56.3401
14.5728 -4.55716 -57.2019
14.5728 -4.55716 -57.2019
16.2112 -4.91114 -58.9632
16.8635 -4.68653 -59.8623
17.5009 -4.46707 -60.7733
18.4177 -5.13316 -61.6959
19.0281 -4.93481 -62.6299
19.623 -4.74152 -63.5749
20.6396 -5.03604 -64.4856
21.2078 -4.86234 -65.4551
21.7596 -4.6936 -66.4348
22.2951 -4.5299 -67.4245
23.6038 -5.18918 -69.4324
24.0915 -5.04934 -70.45
24.5621 -4.9144 -71.4763
25.4512 -4.65945 -73.5538
26.5538 -5.44759 -75.6623
27.3051 -5.24629 -77.7992
28.1217 -5.41491 -81.0419
28.9439 -5.19461 -84.3331
29.399 -5.07265 -86.5501
30.1747 -5.29611 -87.6211
-92.9873 -4.41137 -78.7991
-92.3023 -4.58216 -76.6264
-91.2771 -3.73872 -74.4796
-90.8031 -4.28029 -73.7239
-90.3812 -4.39333 -72.6695
-89.2081 -3.6369 -70.5845
-88.7358 -3.77233 -69.5544
-88.2374 -4.2403 -68.8527
-86.9241 -3.57868 -66.8377
-86.3867 -3.74297 -65.8445
-85.8329 -3.9123 -64.8613
-85.2627 -4.08662 -63.8884
-84.3623 -3.65144 -63.1941
-83.7635 -3.84599 -62.2429
-82.8526 -3.15955 -61.3029
-82.1563 -3.65448 -60.5822
-81.5154 -3.87515 -59.6662
-80.5598 -3.25456 -58.7621
-79.8932 -3.49717 -57.8703
-78.7909 -3.3043 -57.1321
-78.1015 -3.56894 -56.2675
-77.398 -3.83896 -55.4158
-77.0883 -3.05274 -55.4158
-76.3761 -3.34051 -54.5775
-75.6504 -3.63372 -53.7527
-74.6037 -3.18945 -52.9417
-73.8572 -3.50634 -52.1447
-73.3752 -3.22342 -52.2311
-72.6242 -3.55778 -51.451
-71.5465 -3.20759 -50.6854
-70.3451 -3.2813 -50.0396
-70.3451 -3.2813 -50.0396
-69.2483 -3.00785 -49.3055
-68.4712 -3.40383 -48.5865
-68.0268 -3.12853 -48.6747
-66.8004 -3.27687 -48.0452
-66.8004 -3.27687 -48.0452
-65.5405 -3.49482 -47.4379
-65.0677 -3.30343 -47.5089
-63.9532 -3.20593 -46.8434
-63.4983 -3.01182 -46.9275
-62.3825 -2.97286 -46.2791
-61.9137 -2.7873 -46.3548
-60.6937 -3.15855 -45.7996
-60.6937 -3.15855 -45.7996
-59.0906 -3.15335 -45.2647
-59.0906 -3.15335 -45.2647
-57.9877 -3.26928 -44.6688
-57.0965 -2.85171 -44.7521
-56.0074 -3.04375 -44.1742
-56.0074 -3.04375 -44.1742
-54.9256 -3.27369 -43.6129
-53.8525 -3.54124 -43.0683
-53.4767 -3.1588 -43.0683
-52.4191 -3.48215 -42.5406
-51.6596 -2.77395 -42.5406
-51.126 -3.04773 -42.6568
-50.1038 -3.46073 -42.1477
-49.235 -3.29402 -41.5364
-48.8176 -3.17443 -40.8774
-47.9059 -3.32844 -40.3291
-46.6551 -3.26916 -39.7954
-46.2947 -2.98151 -39.0788
-45.4106 -3.25064 -38.5693
-44.2193 -3.3302 -38.0589
-43.7497 -3.40081 -37.4089
-42.6046 -3.55726 -36.8642
-41.7962 -3.74297 -36.0104
-40.7028 -4.05794 -35.3631
-40.4465 -3.47913 -35.0202
-39.2473 -3.80419 -33.4087
-38.7481 -3.57142 -33.4087
-38.0621 -3.44029 -32.4916
-36.9701 -4.20118 -32.2458
-36.4262 -3.74176 -31.238
-35.5993 -3.48896 -31.238
-34.737 -4.42733 -31.0315
-33.9621 -4.29069 -31.0315
-33.3757 -4.22388 -31.0315
-32.5899 -4.1827 -31.0315
-31.9997 -4.18785 -31.0315
-31.2147 -4.24274 -31.0315
-30.6295 -4.31978 -31.0315
-29.8571 -4.46992 -31.0315
-28.9786 -3.54674 -31.238
-28.36 -3.74176 -31.238
-27.7526 -3.96889 -31.238
-27.1578 -4.22749 -31.238
-26.1586 -3.64806 -32.4916
-25.4729 -3.98994 -32.4916
-25.0261 -4.2376 -32.4916
-23.6353 -3.51633 -33.6937
-22.9921 -3.42718 -34.6025
-22.1159 -3.32528 -35.3447
-21.8288 -3.93826 -35.6872
-20.9394 -3.84599 -36.6323
-20.0311 -3.81482 -37.4089
-18.8418 -2.89526 -38.4548
-18.2365 -3.11228 -39.1765
-17.2781 -2.90917 -39.6968
-16.6591 -2.78303 -40.3291
-15.6554 -3.01325 -40.9666
-15.2836 -3.29859 -40.9666
-14.2712 -3.29402 -41.5364
-13.6202 -3.14235 -42.1477
-13.0101 -3.17056 -42.7868
-12.6123 -3.49846 -42.7868
-11.1885 -3.45771 -43.3107
-10.1442 -3.1184 -43.8514
-9.33412 -3.09582 -43.7258
-8.96125 -2.87257 -43.6129
-7.87347 -3.24101 -44.2854
-7.48984 -3.65967 -44.2854
-6.40408 -3.46822 -44.8615
-5.70229 -2.85817 -45.4539
-4.93137 -3.16259 -45.3463
-4.55639 -3.634 -45.3463
-3.43843 -3.07599 -45.8768
-3.06953 -3.57453 -45.8768
-1.94573 -3.13915 -46.4293
-0.834157 -3.15855 -47.0749
-0.452123 -3.35283 -47.0018
0.686063 -3.0897 -47.5916
1.03714 -3.66261 -47.5916
2.17772 -3.43977 -48.19
2.17772 -3.43977 -48.19
3.32839 -3.22534 -48.819
4.4294 -3.43936 -49.5325
4.79016 -3.70589 -49.4604
5.552 -3.31772 -50.1907
5.95891 -3.63567 -50.1241
7.04264 -3.94643 -50.8711
7.87756 -3.24065 -51.5523
8.19726 -3.94215 -51.5523
8.94631 -3.60865 -52.3304
10.0016 -4.01373 -53.1227
10.0956 -3.62953 -53.0254
11.1387 -4.07232 -53.8338
11.862 -3.78009 -54.6558
12.5719 -3.49328 -55.4913
13.5816 -4.00776 -56.3401
14.2687 -3.744 -57.2019
14.9417 -3.48567 -58.0763
15.9131 -4.06933 -58.9632
16.5614 -3.83337 -59.8623
17.5009 -4.46707 -60.7733
18.2636 -3.81482 -61.6413
18.73 -4.04383 -62.6299
19.7686 -4.30517 -63.5266
20.3496 -4.11637 -64.4856
20.9147 -3.93278 -65.4551
21.4635 -3.75444 -66.4348
22.2951 -4.5299 -67.4245
23.3161 -4.21776 -69.4324
23.8013 -4.06942 -70.45
24.6671 -4.54098 -71.3659
25.4512 -4.65945 -73.5538
26.2701 -4.42464 -75.6623
27.0178 -4.21026 -77.7992
28.0037 -3.92754 -81.0523
28.8643 -4.82849 -83.2489
29.5774 -4.63741 -86.5789
30.0754 -4.16098 -88.745
-93.0396 -3.74906 -78.397
-92.0838 -2.87387 -76.2235
-91.2771 -3.73872 -74.4796
-90.5897 -2.82647 -73.4168
-90.1005 -3.38102 -72.6695
-89.2081 -3.6369 -70.5845
-88.4445 -2.78883 -69.5544
-87.9575 -2.93771 -68.5331
-87.4536 -3.09178 -67.5208
-86.0896 -2.80047 -65.8445
-85.5387 -2.97944 -64.8613
-84.9717 -3.16368 -63.8884
-84.0587 -2.74423 -63.1941
-83.4635 -2.9492 -62.2429
-82.8526 -3.15955 -61.3029
-81.8486 -2.78548 -60.5822
-81.2116 -3.0173 -59.6662
-80.5598 -3.25456 -58.7621
-79.5831 -2.66769 -57.8703
-78.9064 -2.92744 -56.9911
-78.4716 -2.49385 -57.1321
-77.7869 -2.77049 -56.2675
-77.0883 -3.05274 -55.4158
-76.0578 -2.5722 -54.5775
-75.3373 -2.87804 -53.7527
-74.2831 -2.45209 -52.9417
-73.5422 -2.78197 -52.1447
-73.0488 -2.50706 -52.2311
-72.3037 -2.85447 -51.451
-71.22 -2.52315 -50.6854
-71.22 -2.52315 -50.6854
-70.0142 -2.61762 -50.0396
-68.9128 -2.36335 -49.3055
-68.9128 -2.36335 -49.3055
-67.6883 -2.50499 -48.6747
-67.6883 -2.50499 -48.6747
-66.4595 -2.67434 -48.0452
-65.3435 -2.53731 -47.3607
-64.8452 -2.33763 -47.4379
-64.3542 -2.1615 -47.5089
-63.2369 -2.10294 -46.8434
-62.7644 -1.92373 -46.9275
-61.5426 -2.26705 -46.3548
-61.5426 -2.26705 -46.3548
-60.3239 -2.65879 -45.7996
-59.4333 -2.09859 -45.8768
-58.8982 -2.10497 -45.9568
-58.3304 -2.21452 -45.2647
-56.7082 -2.41276 -44.7521
-56.7082 -2.41276 -44.7521
-55.6225 -2.62378 -44.1742
-55.2304 -2.2106 -44.1742
-54.1574 -2.47815 -43.6129
-53.2106 -2.32995 -43.7258
-52.7053 -2.4139 -43.0683
-51.7617 -2.31646 -43.1829
-50.7324 -2.71156 -42.6568
-49.8579 -2.52482 -42.0299
-49.465 -2.21225 -42.0299
-48.5824 -2.21378 -41.4441
-48.1565 -2.2429 -40.7911
-47.3254 -2.07913 -40.1429
-46.4485 -2.26341 -39.6057
-45.2533 -2.26583 -39.0788
-44.4543 -2.22457 -38.4548
-44.0054 -2.29291 -37.7885
-42.8416 -2.44269 -37.2258
-42.0242 -2.92541 -36.6323
-40.9206 -2.93771 -35.6872
-40.1647 -3.33864 -35.0202
-39.1794 -3.41568 -34.2972
-38.4956 -3.4616 -33.4087
-37.7269 -3.15883 -33.4087
-37.1084 -3.07421 -32.4916
-36.3777 -2.84381 -32.4916
-35.3865 -3.73212 -32.2458
-34.7568 -3.29446 -31.238
-34.1171 -3.18742 -31.238
-33.2572 -3.09704 -31.238
-32.6093 -3.06875 -31.238
-31.9608 -3.07441 -31.238
-31.0982 -3.13472 -31.238
-30.4552 -3.21937 -31.238
-29.8175 -3.33756 -31.238
-29.1869 -3.48896 -31.238
-28.5651 -3.67316 -31.238
-27.5558 -2.85305 -31.4639
-26.9029 -3.12349 -31.4639
-26.3911 -3.54214 -32.4916
-25.1982 -2.88823 -32.7566
-24.7132 -3.14615 -32.7566
-23.8891 -3.36679 -33.6937
-23.2634 -3.26731 -34.6025
-22.4007 -3.15078 -35.3447
-21.5317 -3.16368 -36.3535
-20.6442 -2.74423 -36.9943
-19.7368 -2.71652 -37.7885
-19.1757 -2.66581 -38.4548
-18.5828 -2.87429 -39.1765
-17.634 -2.65532 -39.6968
-16.6691 -2.44081 -40.2406
-16.0516 -2.31642 -40.8774
-15.053 -2.21378 -41.4441
-14.6673 -2.50976 -41.4441
-13.6483 -2.52482 -42.0299
-13.0048 -2.38232 -42.6568
-11.9825 -1.96931 -43.1829
-11.1757 -2.67065 -43.1829
-10.1272 -2.32995 -43.7258
-9.72732 -2.70942 -43.7258
-9.34884 -2.47815 -43.6129
-8.26436 -2.8291 -44.2854
-7.18594 -2.59987 -44.8615
-6.79122 -3.03064 -44.8615
-6.10018 -2.40842 -45.4539
-5.00841 -2.25499 -46.0624
-4.608 -2.7238 -46.0624
-3.81598 -2.58396 -45.8768
-2.70846 -2.52591 -46.505
-1.59959 -2.50656 -47.1491
-1.22103 -3.03728 -47.1491
-0.0932349 -2.65879 -47.7363
0.298995 -2.86505 -47.6645
1.0403 -2.38364 -48.3427
1.43725 -2.62031 -48.2713
2.57864 -2.39534 -48.8864
2.93598 -3.00199 -48.8864
4.08538 -2.80574 -49.5325
5.21136 -2.66337 -50.1907
5.21136 -2.66337 -50.1907
6.38125 -2.59037 -50.8711
6.71786 -3.26551 -50.8711
7.46497 -2.90112 -51.6328
8.62069 -2.89413 -52.3304
8.62069 -2.89413 -52.3304
9.68285 -3.28072 -53.1227
10.5017 -2.57157 -53.8338
11.5448 -3.01436 -54.6558
12.2496 -2.7152 -55.4913
12.5719 -3.49328 -55.4913
13.2682 -3.21198 -56.3401
13.9506 -2.93627 -57.2019
15.0715 -3.0451 -58.0095
15.6003 -3.23285 -58.9632
16.6966 -3.39397 -59.8015
17.3322 -3.16264 -60.7156
17.9527 -2.9368 -61.6413
18.8726 -3.60513 -62.5784
19.466 -3.40081 -63.5266
20.4456 -3.74125 -64.3602
20.9147 -3.93278 -65.4551
21.4635 -3.75444 -66.4348
22.0956 -3.20514 -67.3054
23.0114 -3.2515 -69.4324
23.9046 -3.69419 -70.3374
24.3738 -3.55076 -71.3659
25.2602 -3.27976 -73.4478
26.0766 -3.03016 -75.5608
27.128 -3.83533 -77.7023
28.0037 -3.92754 -81.0523
28.5695 -3.76531 -83.2489
29.2791 -3.56182 -86.5789
30.0754 -4.16098 -88.745
-92.7659 -2.69109 -78.397
-92.0838 -2.87387 -76.2235
-90.9921 -2.71108 -74.4796
-90.5897 -2.82647 -73.4168
-90.1695 -2.94697 -72.3614
-88.9822 -2.21044 -70.2744
-88.4445 -2.78883 -69.5544
-87.6518 -1.96792 -68.5331
-87.1506 -2.13076 -67.5208
-86.0982 -2.47269 -65.5246
-85.2284 -2.05185 -64.8613
-84.6646 -2.24597 -63.8884
-84.0849 -2.44558 -62.926
-83.1478 -2.05779 -62.2429
-82.5407 -2.27877 -61.3029
-81.9182 -2.50531 -60.3743
-80.8929 -2.16488 -59.6662
-80.8929 -2.16488 -59.6662
-79.9162 -1.57801 -58.7621
-79.2585 -1.84374 -57.8703
-78.1383 -1.6891 -57.1321
-77.4585 -1.97765 -56.2675
-76.8762 -1.89298 -55.2711
-75.7262 -1.80957 -54.5775
-75.0112 -2.12793 -53.7527
-74.2831 -2.45209 -52.9417
-73.9497 -1.72045 -52.9417
-73.2146 -2.0632 -52.1447
-72.1332 -1.71184 -51.3619
-71.3797 -2.07934 -50.5937
-70.8817 -1.84451 -50.6854
-69.7821 -1.57036 -49.9345
-69.0212 -1.97493 -49.1985
-68.5661 -1.72481 -49.3055
-67.453 -1.52853 -48.5865
-67.3389 -1.88746 -48.6747
-66.2225 -1.73055 -47.9729
-65.7465 -1.4876 -48.0452
-64.6263 -1.3896 -47.3607
-64.11 -1.20542 -47.4379
-63.3625 -1.70961 -46.7707
-62.8645 -1.561 -46.8434
-61.6479 -1.92373 -46.2791
-61.1625 -1.75335 -46.3548
-60.7735 -1.24636 -46.3548
-59.5584 -1.67902 -45.7996
-59.0389 -1.62004 -45.8768
-57.9381 -1.7552 -45.2647
-56.9944 -1.34451 -45.3463
-56.3122 -1.98066 -44.7521
-55.9088 -1.55553 -44.7521
-54.8312 -1.80431 -44.1742
-54.4249 -1.40506 -44.1742
-53.3618 -1.7099 -43.6129
-52.9541 -1.3363 -43.6129
-51.9084 -1.69636 -43.0683
-50.9428 -1.62931 -43.1829
-49.9279 -2.06009 -42.6568
-49.1797 -1.4211 -41.9389
-48.775 -1.1216 -41.9389
-47.778 -1.96283 -40.7911
-47.0811 -1.0776 -40.7036
-46.0873 -2.01518 -39.6057
-45.4486 -1.15851 -39.5091
-44.1089 -2.01291 -38.4548
-43.8037 -1.41746 -38.3199
-42.5187 -2.26001 -37.2258
-42.2222 -1.80212 -36.9943
-41.0952 -2.1384 -36.3535
-40.3434 -2.21044 -35.3447
-39.3384 -2.28413 -34.6025
-38.654 -2.33433 -33.6937
-37.8262 -2.02481 -33.6937
-37.2074 -1.94309 -32.7566
-36.1316 -2.77555 -32.4916
-35.6359 -2.65196 -32.4916
-34.9687 -2.20451 -31.4639
-34.0381 -2.05713 -31.4639
-33.3347 -1.9894 -31.4639
-32.6287 -1.95857 -31.4639
-31.922 -1.96474 -31.4639
-31.2167 -2.00788 -31.4639
-30.5145 -2.08788 -31.4639
-29.5867 -2.25148 -31.4639
-29.1276 -2.35747 -31.4639
-28.4466 -2.54632 -31.4639
-27.8212 -2.99316 -32.4916
-26.7033 -2.21815 -32.7566
-26.1939 -2.42395 -32.7566
-25.4441 -2.76566 -32.7566
-24.9295 -2.8136 -33.6937
-23.8895 -2.11253 -33.9979
-23.0064 -2.15393 -34.9271
-22.1437 -2.0378 -35.6882
-21.275 -2.05185 -36.7156
-20.7124 -1.71026 -37.6062
-19.8247 -1.38968 -38.1867
-18.9407 -1.56018 -38.8691
-18.0319 -1.63707 -39.5091
-17.4205 -1.55714 -40.1429
-16.456 -1.34486 -40.7036
-15.8585 -1.22157 -41.356
-15.07 -1.79449 -41.356
-14.0707 -1.30714 -41.8521
-13.4373 -1.4392 -42.5406
-12.8133 -1.29656 -43.1829
-12.395 -1.62931 -43.1829
-10.9465 -1.59223 -43.7258
-10.5336 -1.95752 -43.7258
-9.47931 -1.63517 -44.2854
-9.08129 -1.40506 -44.1742
-7.99764 -1.75934 -44.8615
-7.58812 -2.17606 -44.8615
-6.5118 -1.34451 -45.3463
-5.83346 -1.33867 -46.0624
-5.41694 -1.79323 -46.0624
-4.60802 -2.10497 -45.9568
-3.50629 -2.00859 -46.5832
-2.40187 -1.95071 -47.2255
-1.98736 -1.98252 -47.1491
-0.878319 -1.98252 -47.8088
-0.47221 -2.10738 -47.7363
0.661707 -1.81166 -48.3427
0.661707 -1.81166 -48.3427
1.80073 -1.56468 -48.9663
2.17826 -2.15728 -48.9663
3.31861 -1.95072 -49.5981
3.73035 -2.17822 -49.5325
4.83136 -2.39224 -50.2609
5.59593 -1.60678 -50.9358
6.0329 -1.9212 -50.8711
7.12188 -2.213 -51.6328
7.54568 -2.54483 -51.5523
8.28264 -2.18539 -52.3304
9.00728 -1.83196 -53.1227
9.44374 -2.16546 -53.0254
10.5017 -2.57157 -53.8338
11.2144 -2.25428 -54.6558
11.9138 -1.94287 -55.4913
12.3704 -2.27204 -55.4158
13.6183 -2.13421 -57.2019
14.077 -2.49385 -57.1321
14.7477 -2.22291 -58.0095
15.7324 -2.79143 -58.8994
16.3786 -2.54336 -59.8015
17.01 -2.30097 -60.7156
17.9527 -2.9368 -61.6413
18.5579 -2.71652 -62.5784
19.1476 -2.50187 -63.5266
20.139 -2.82482 -64.3602
21.1511 -2.82058 -66.4348
21.7793 -2.26001 -67.3054
22.0956 -3.20514 -67.3054
22.6899 -2.29071 -69.4324
23.5967 -2.71741 -70.3374
24.5126 -2.41979 -72.4028
25.3595 -2.14463 -74.5006
26.0766 -3.03016 -75.5608
26.822 -2.80227 -77.7023
27.8049 -2.50175 -80.9623
28.683 -3.38943 -83.1635
29.3942 -3.18551 -86.5007
29.7746 -3.07643 -88.745
-92.4739 -1.63805 -78.397
-91.7951 -1.83271 -76.2235
-91.4284 -1.93785 -75.1464
-90.2889 -1.81096 -73.4168
-89.8708 -1.93877 -72.3614
-88.9822 -2.21044 -70.2744
-88.2032 -1.37505 -69.2434
-87.6518 -1.96792 -68.5331
-86.8309 -1.17518 -67.5208
-86.316 -1.35246 -66.5178
-85.2284 -2.05185 -64.8613
-84.3416 -1.33375 -63.8884
-84.3416 -1.33375 -63.8884
-82.8166 -1.17203 -62.2429
-82.2135 -1.40356 -61.3029
-82.2135 -1.40356 -61.3029
-81.5951 -1.64094 -60.3743
-80.5594 -1.31815 -59.6662
-79.9162 -1.57801 -58.7621
-78.9196 -1.02559 -57.8703
-78.2524 -1.3088 -56.9911
-77.1163 -1.19065 -56.2675
-76.5385 -1.1164 -55.2711
-76.0776 -0.728179 -55.4158
-75.3814 -1.05284 -54.5775
-74.7787 -1.00267 -53.6044
-74.0549 -1.34021 -52.7917
-72.8746 -1.35026 -52.1447
-71.7872 -1.01783 -51.3619
-71.7872 -1.01783 -51.3619
-70.6889 -0.723539 -50.5937
-69.7821 -1.57036 -49.9345
-69.4273 -0.916963 -49.9345
-68.3149 -0.700732 -49.1985
-67.453 -1.52853 -48.5865
-67.0919 -0.915593 -48.5865
-65.97 -0.77784 -47.8828
-65.4869 -0.553301 -47.9729
-64.6263 -1.3896 -47.3607
-64.2528 -0.825306 -47.3607
-62.989 -1.16627 -46.7707
-62.4826 -1.02563 -46.8434
-62.0915 -0.497015 -46.8434
-60.8772 -0.900879 -46.2791
-60.3757 -0.746244 -46.3548
-59.2658 -0.843344 -45.7238
-58.7592 -0.726553 -45.7996
-57.6583 -0.881277 -45.186
-57.1297 -0.85744 -45.2647
-56.7139 -0.419279 -45.2647
-55.498 -1.13751 -44.7521
-55.08 -0.726719 -44.7521
-54.0117 -1.01296 -44.1742
-53.5917 -0.628126 -44.1742
-52.5399 -0.96988 -43.6129
-52.1194 -0.610742 -43.6129
-51.087 -1.00707 -43.0683
-50.2419 -0.346877 -43.0683
-49.7718 -0.635426 -42.4511
-48.8741 -0.699641 -41.8521
-47.9715 -0.865664 -41.2708
-47.0811 -1.0776 -40.7036
-46.2821 -0.910599 -40.053
-45.074 -0.928951 -39.5091
-44.2318 -1.25706 -38.9825
-43.4502 -1.21748 -38.3199
-42.6585 -1.51525 -37.7885
-41.8928 -1.63064 -36.9943
-41.2343 -1.00583 -36.7156
-40.4826 -1.0767 -35.6882
-39.4578 -1.14772 -34.9271
-38.4593 -1.93785 -34.6025
-37.8262 -2.02481 -33.6937
-36.9454 -1.86049 -32.7566
-36.4173 -1.70906 -32.7566
-35.6161 -1.5167 -32.7566
-34.6331 -2.45705 -32.4916
-34.0381 -2.05713 -31.4639
-33.3347 -1.9894 -31.4639
-32.6287 -1.95857 -31.4639
-31.922 -1.96474 -31.4639
-31.2167 -2.00788 -31.4639
-30.5145 -2.08788 -31.4639
-29.8175 -2.20451 -31.4639
-28.86 -1.28409 -31.7091
-28.2701 -1.70906 -32.7566
-27.48 -1.94309 -32.7566
-26.9606 -2.12195 -32.7566
-26.0359 -1.29956 -33.0409
-25.2274 -1.65108 -33.0409
-24.7319 -1.69254 -33.9979
-24.1678 -1.96764 -33.9979
-23.3 -1.99452 -34.9271
-22.4509 -1.86398 -35.6882
-21.5951 -1.8633 -36.7156
-21.0482 -1.51245 -37.6062
-20.1722 -1.17676 -38.1867
-19.2978 -1.33266 -38.8691
-18.3983 -1.39458 -39.5091
-17.4281 -1.1624 -40.053
-16.8512 -0.71314 -40.6069
-15.8697 -0.865664 -41.2708
-14.8769 -0.699641 -41.8521
-14.4712 -0.99987 -41.8521
-13.4505 -0.952396 -42.4511
-12.8389 -0.673288 -43.0683
-12.4192 -1.00707 -43.0683
-11.3868 -0.610742 -43.6129
-10.3233 -0.875263 -44.2854
-9.89797 -1.25154 -44.2854
-8.42623 -0.726719 -44.7521
-8.41436 -1.34982 -44.8615
-7.34864 -0.477937 -45.3463
-6.92644 -0.907571 -45.3463
-5.83346 -1.33867 -46.0624
-5.41948 -1.1715 -45.9568
-4.32178 -1.03672 -46.5832
-3.22005 -0.940332 -47.2255
-2.80655 -1.44195 -47.2255
-1.68166 -0.916449 -47.8088
-1.27534 -1.44598 -47.8088
-0.572627 -0.916449 -48.484
0.250311 -1.60147 -48.4131
1.38457 -1.32408 -49.0363
2.09729 -0.843344 -49.745
2.52326 -1.09546 -49.6765
2.94286 -1.33755 -49.5981
4.09551 -1.11771 -50.2609
5.19652 -1.33173 -51.0042
5.59593 -1.60678 -50.9358
6.39994 -0.855228 -51.6328
6.76684 -1.53096 -51.6328
7.93227 -1.48267 -52.3304
7.93227 -1.48267 -52.3304
9.00728 -1.83196 -53.1227
9.81268 -1.09396 -53.8338
10.1636 -1.82976 -53.8338
10.8706 -1.50008 -54.6558
11.9138 -1.94287 -55.4913
12.7217 -1.19065 -56.2675
13.7437 -1.6891 -57.1321
14.4095 -1.40649 -58.0095
14.4095 -1.40649 -58.0095
15.404 -1.95774 -58.8994
16.0458 -1.69844 -59.8015
17.01 -2.30097 -60.7156
17.7167 -1.68484 -61.5099
18.8137 -1.60862 -63.5266
19.2411 -2.1233 -63.3992
19.8164 -1.91389 -64.3602
20.9194 -1.51245 -66.3137
21.7793 -2.26001 -67.3054
22.2934 -2.08299 -68.3069
23.2717 -1.74615 -70.3374
23.2717 -1.74615 -70.3374
24.5126 -2.41979 -72.4028
25.3595 -2.14463 -74.5006
25.7567 -2.01557 -75.5608
26.8622 -2.52213 -77.5117
27.5363 -2.31602 -79.6813
28.4107 -2.04868 -82.9785
29.0765 -2.113 -86.5007
29.8178 -2.79656 -88.5656
-92.2896 -0.793662 -77.627
-91.4882 -0.796746 -76.2235
-91.1234 -0.90827 -75.1464
-90.3402 -1.14772 -73.0128
-89.5546 -0.935942 -72.3614
-88.6709 -1.22308 -70.2744
-88.2032 -1.37505 -69.2434
-87.3955 -0.567347 -68.2211
-86.8309 -1.17518 -67.5208
-85.9828 -0.411566 -66.5178
-85.4547 -0.603772 -65.5246
-84.9019 -1.12983 -64.8613
-84.0027 -0.427312 -63.8884
-83.4303 -0.647036 -62.926
-82.8423 -0.872745 -61.9744
-81.871 -0.534203 -61.3029
-81.2569 -0.782337 -60.3743
-80.2792 -0.194876 -59.4573
-79.5726 -0.748418 -58.7621
-78.5665 -0.213471 -57.8703
-77.9043 -0.508281 -56.9911
-77.9043 -0.508281 -56.9911
-76.1873 -0.345824 -55.2711
-76.1873 -0.345824 -55.2711
-75.4896 -0.671173 -54.431
-74.4258 -0.262825 -53.6044
-73.708 -0.612949 -52.7917
-72.6243 -0.260835 -51.993
-72.1574 0.0572658 -52.1447
-71.4291 -0.32996 -51.3619
-70.6889 -0.723539 -50.5937
-69.581 -0.467761 -49.8403
-69.581 -0.467761 -49.8403
-68.3149 -0.700732 -49.1985
-67.9452 -0.0730742 -49.1985
-66.823 0.0846412 -48.4776
-66.338 0.29091 -48.5865
-65.5961 -0.1909 -47.8828
-65.1037 0.0255171 -47.9729
-63.9779 0.0845205 -47.2865
-63.4766 0.283301 -47.3607
-62.214 -0.0995503 -46.7707
-62.214 -0.0995503 -46.7707
-60.5739 -0.0338536 -46.1938
-60.0712 0.0944497 -46.2791
-60.0712 0.0944497 -46.2791
-58.4484 0.0970125 -45.7238
-58.4484 0.0970125 -45.7238
-56.8324 0.00438724 -45.186
-56.2906 0.011559 -45.2647
-55.8597 0.434942 -45.2647
-54.6548 -0.323288 -44.7521
-54.2227 0.0726617 -44.7521
-53.1651 -0.250683 -44.1742
-52.732 0.119257 -44.1742
-51.6927 -0.258997 -43.6129
-51.26 0.0852478 -43.6129
-50.2419 -0.346877 -43.0683
-49.3532 -0.325712 -42.4511
-48.4632 -0.406538 -41.8521
-48.1265 0.237585 -41.7679
-46.7549 -0.452175 -40.6069
-46.4382 0.200103 -40.5181
-45.6051 -0.0450583 -39.9575
-44.8079 0.00792139 -39.3016
-43.5883 -0.0926905 -38.7352
-42.7971 -0.386683 -38.1867
-42.0318 -0.498525 -37.375
-40.8962 -0.851769 -36.7156
-40.5593 -0.375634 -36.3925
-39.147 -1.02527 -34.9271
-38.5191 -0.796746 -34.9271
-37.8857 -0.888019 -33.9979
-37.2856 -0.704543 -33.9979
-36.4173 -0.573619 -33.0409
-35.3469 -1.46193 -32.7566
-34.8059 -1.36653 -32.7566
-33.9889 -1.25898 -32.7566
-33.4416 -1.2111 -32.7566
-32.648 -0.852507 -31.7091
-31.8834 -0.859179 -31.7091
-31.1203 -0.905856 -31.7091
-30.3606 -0.992411 -31.7091
-29.8571 -1.07215 -31.7091
-29.0713 -1.5167 -32.7566
-28.536 -1.64028 -32.7566
-27.4206 -0.809206 -33.0409
-26.8616 -0.99083 -33.0409
-26.3093 -1.19185 -33.0409
-25.5951 -1.31722 -33.9979
-24.5734 -0.565272 -34.3213
-23.9702 -0.846584 -34.3213
-23.3902 -1.37505 -35.6882
-22.5764 -1.00361 -36.3925
-21.397 -0.739557 -37.0965
-20.8699 -0.387016 -38.0052
-19.6273 -0.269911 -38.6034
-19.121 -0.216245 -39.3016
-18.2224 -0.284024 -39.9575
-17.2526 -0.0545953 -40.5181
-16.6955 0.39471 -41.0885
-15.7147 0.237585 -41.7679
-15.2878 -0.406538 -41.8521
-14.2973 0.0981814 -42.3655
-13.277 0.142987 -42.9803
-13.2643 -0.346877 -43.0683
-12.2462 0.0852478 -43.6129
-11.2138 0.481581 -44.1742
-10.7551 -0.506471 -44.2854
-9.70652 -0.165777 -44.8615
-9.26894 -0.552921 -44.8615
-7.77827 -0.0557377 -45.3463
-7.12974 -0.0195604 -46.0624
-6.69 -0.451698 -46.0624
-5.60424 -0.260249 -46.6869
-5.16893 -0.718974 -46.6869
-4.51246 -0.10681 -47.3271
-3.41599 0.00843377 -47.983
-2.539 -0.368862 -47.8833
-2.09717 -0.394089 -47.8088
-0.9883 -0.374733 -48.484
-0.554314 -0.493994 -48.4131
0.556748 -0.532793 -49.1052
0.987436 -0.746244 -49.0363
1.69166 -0.253145 -49.745
2.12715 -0.497003 -49.6765
3.26995 -0.267698 -50.3247
3.71102 -0.490274 -50.2609
4.81559 -0.685041 -51.0042
5.22543 -0.951929 -50.9358
6.39994 -0.855228 -51.6328
7.11522 -0.458743 -52.4089
7.5697 -0.786165 -52.3304
8.28156 -0.407657 -53.1227
9.35657 -0.756949 -53.9289
9.44893 -0.364405 -53.8338
10.5138 -0.751993 -54.6558
11.202 -0.416363 -55.4913
11.683 -0.728179 -55.4158
12.7217 -1.19065 -56.2675
13.3964 -0.890289 -57.1321
14.0571 -0.596107 -58.0095
15.0611 -1.12992 -58.8994
15.6982 -0.859446 -59.8015
16.3208 -0.59517 -60.7156
17.3746 -0.816357 -61.5099
17.7167 -1.68484 -61.5099
18.9064 -1.22815 -63.3992
19.478 -1.00873 -64.3602
20.0338 -0.795364 -65.3318
20.9194 -1.51245 -66.3137
21.4467 -1.32054 -67.3054
21.9929 -0.852741 -68.1068
22.9298 -0.780714 -70.3374
23.7726 -1.30506 -71.1689
24.2198 -1.15106 -72.2069
25.0626 -0.860867 -74.3067
25.7958 -1.73463 -75.368
26.5378 -1.49353 -77.5117
27.2083 -1.27569 -79.6813
28.0779 -0.993125 -82.9785
28.9015 -1.89864 -85.2012
29.5171 -1.41727 -88.3076
-91.9605 -0.888019 -76.5413
-91.3076 0.0444633 -75.4617
-91.1234 -0.90827 -75.1464
-90.0216 -0.137253 -73.0128
-89.6057 -0.272385 -71.9571
-89.1724 -0.413191 -70.9092
-87.8774 -0.401407 -69.2434
-87.3955 -0.567347 -68.2211
-86.5601 0.211673 -67.2079
-85.9828 -0.411566 -66.5178
-85.1086 0.321982 -65.5246
-84.5678 0.114407 -64.5412
-84.0027 -0.427312 -63.8884
-83.0795 0.243395 -62.926
-82.4956 0.00745811 -61.9744
-81.5134 0.329046 -61.3029
-80.9037 0.0702319 -60.3743
-80.2792 -0.194876 -59.4573
-79.2815 0.358107 -58.5524
-78.6329 0.0692918 -57.6597
-78.1993 0.592359 -57.8703
-77.5424 0.286038 -56.9911
-76.8716 -0.0267215 -56.1246
-75.8228 0.418503 -55.2711
-75.1308 0.0810271 -54.431
-74.0601 0.470747 -53.6044
-73.3484 0.108149 -52.7917
-72.9764 0.822862 -52.7917
-72.2588 0.441296 -51.993
-71.1581 0.736212 -51.2086
-70.4233 0.328906 -50.4388
-69.9512 0.607332 -50.5937
-69.2137 0.181519 -49.8403
-68.0939 0.378964 -49.1018
-68.0939 0.378964 -49.1018
-66.823 0.0846412 -48.4776
-66.4398 0.686142 -48.4776
-65.212 0.389425 -47.8828
-64.8178 0.962959 -47.8828
-63.5839 0.636906 -47.2865
-63.5839 0.636906 -47.2865
-62.3522 0.283301 -46.6919
-61.9498 0.807651 -46.6919
-60.6926 0.364803 -46.1194
-60.1657 0.461303 -46.1938
-59.6553 0.581413 -46.2791
-59.2309 1.06104 -46.2791
-58.0275 0.556348 -45.7238
-57.4993 0.648404 -45.7996
-56.5022 1.10022 -45.8768
-55.4216 0.850741 -45.2647
-54.8469 0.765848 -45.3463
-53.7838 0.46101 -44.7521
-53.3381 0.841639 -44.7521
-52.2924 0.481581 -44.1742
-51.8467 0.836179 -44.1742
-50.7932 0.89169 -44.2854
-50.3767 0.750818 -43.6129
-49.3744 0.283428 -43.0683
-48.5002 0.271566 -42.4511
-47.7048 0.516759 -41.7679
-46.8237 0.29097 -41.1843
-46.034 0.447785 -40.5181
-45.211 0.187065 -39.9575
-44.4235 0.225412 -39.3016
-44.0799 0.831764 -39.1689
-42.8962 0.74603 -38.6034
-42.1312 0.637752 -37.7745
-40.9758 0.286526 -37.0965
-40.2161 -0.233447 -36.3925
-39.5375 -0.00783517 -35.2707
-38.8739 0.233702 -35.2707
-37.9056 0.250158 -34.3213
-36.9832 -0.620688 -33.9979
-36.1316 -0.505013 -33.0409
-35.5566 -0.382813 -33.0409
-34.6872 -0.237313 -33.0409
-34.1038 -0.165685 -33.0409
-33.225 -0.0965182 -33.0409
-32.6376 -0.0760061 -33.0409
-31.756 -0.0836991 -33.0409
-31.1691 -0.114459 -33.0409
-30.2916 -0.198954 -33.0409
-29.7096 -0.280752 -33.0409
-29.1308 -0.382813 -33.0409
-28.2701 -0.573619 -33.0409
-27.7024 -0.725739 -33.0409
-26.8022 0.143053 -33.3444
-25.9172 -0.170341 -33.3444
-25.4958 -0.1832 -34.3213
-24.8787 -0.432554 -34.3213
-23.8117 0.280688 -34.6636
-23.251 -0.241301 -36.0506
-22.4373 0.129079 -36.7734
-21.2382 0.390413 -37.4961
-20.3559 0.540273 -38.4229
-19.8686 0.620475 -39.1689
-18.9832 0.905663 -39.7524
-18.0853 0.831993 -40.4238
-17.6524 0.200103 -40.5181
-16.6955 0.39471 -41.0885
-16.1365 0.516759 -41.7679
-15.1523 0.696915 -42.3655
-14.7222 0.401279 -42.3655
-13.7093 0.462819 -42.9803
-13.1295 0.750818 -43.6129
-12.0882 0.553917 -44.2854
-11.6377 0.208228 -44.2854
-10.6016 0.585308 -44.8615
-9.55308 0.926002 -45.4539
-9.09647 0.536014 -45.4539
-8.51694 0.426949 -46.1785
-7.57697 0.404837 -46.0624
-6.49855 0.634061 -46.6869
-5.90934 0.476594 -47.4381
-5.44899 0.0242104 -47.4381
-3.86427 0.497641 -47.983
-3.86427 0.497641 -47.983
-2.97127 0.137261 -47.8833
-1.84769 0.686524 -48.484
-1.3971 0.584721 -48.4131
-0.28536 0.584721 -49.1052
0.163219 0.388193 -49.0363
1.3039 0.678718 -49.6765
1.72066 0.0944497 -49.6765
2.86484 0.344363 -50.3247
3.31563 0.130357 -50.2609
4.02018 0.587894 -51.0042
4.45043 0.337883 -50.9358
5.55417 0.123338 -51.6954
6.02131 -0.186001 -51.6328
6.72956 0.222908 -52.4089
7.90017 0.294778 -53.1227
7.90017 0.294778 -53.1227
8.98112 -0.0356991 -53.9289
10.144 -0.0102492 -54.6558
10.144 -0.0102492 -54.6558
11.3192 0.0345215 -55.4158
11.9964 0.364814 -56.2675
13.0351 -0.0976617 -57.1321
13.0351 -0.0976617 -57.1321
14.0571 -0.596107 -58.0095
14.7038 -0.308198 -58.8994
15.7843 -0.477372 -59.6662
16.3208 -0.59517 -60.7156
17.0174 0.0460214 -61.5099
17.973 -0.574576 -62.449
18.5561 -0.338972 -63.3992
19.1238 -0.109616 -64.3602
20.0672 -0.51319 -65.1287
20.5738 -0.588104 -66.3137
21.132 -0.104429 -67.1043
21.9929 -0.852741 -68.1068
22.9661 -0.498525 -70.1394
23.4275 -0.33057 -71.1689
23.872 -0.168786 -72.2069
25.0626 -0.860867 -74.3067
25.4579 -0.724762 -75.368
26.2137 -0.171179 -77.2493
27.5349 -0.876295 -80.5138
28.0967 -0.69377 -82.7182
28.8013 -0.464827 -86.0601
28.9991 -0.400566 -87.1821
-91.9804 0.250158 -77.627
-91.3076 0.0444633 -75.4617
-90.8005 0.115829 -75.1464
-90.0216 -0.137253 -73.0128
-89.272 0.72513 -71.9571
-88.8411 0.576783 -70.9092
-87.9279 0.262341 -68.8379
-87.0558 0.392074 -68.2211
-86.5601 0.211673 -67.2079
-85.698 0.961063 -66.204
-85.1086 0.321982 -65.5246
-84.2093 1.02457 -64.5412
-83.648 0.473075 -63.8884
-83.0795 0.243395 -62.926
-82.1335 0.881476 -61.9744
-81.5386 0.628932 -61.034
-81.1409 1.18592 -61.3029
-80.5357 0.916508 -60.3743
-79.9159 0.640541 -59.4573
-78.9088 1.17603 -58.5524
-78.2652 0.875936 -57.6597
-77.2315 1.35798 -56.7795
-76.5657 1.03324 -55.9122
-75.8863 0.701905 -55.0579
-74.8215 1.11067 -54.2169
-74.1219 0.754202 -53.3895
-73.743 1.48201 -53.3895
-73.0371 1.10667 -52.5759
-71.8811 1.13694 -51.993
-71.1581 0.736212 -51.2086
-70.0479 0.992536 -50.4388
-70.0479 0.992536 -50.4388
-68.9293 1.20996 -49.6837
-68.1866 0.763681 -48.9436
-67.712 1.00216 -49.1018
-66.5835 1.14073 -48.3785
-66.0462 1.28086 -48.4776
-64.9157 1.35991 -47.7721
-64.9157 1.35991 -47.7721
-63.6882 1.00241 -47.1947
-63.2835 1.54925 -47.1947
-62.0531 1.16266 -46.6159
-61.5384 1.3249 -46.6919
-61.118 1.83489 -46.6919
-59.8655 1.35045 -46.1194
-59.3238 1.42987 -46.1938
-58.7983 1.53319 -46.2791
-58.2591 1.64609 -46.3548
-57.0635 1.09183 -45.7996
-56.0523 1.52713 -45.8768
-55.5951 1.94612 -45.8768
-54.9762 1.25883 -45.2647
-53.9377 1.55619 -45.3463
-53.4729 1.93933 -45.3463
-52.4272 1.57928 -44.7521
-51.9623 1.93606 -44.7521
-51.3457 1.65223 -44.8615
-49.8629 1.54308 -44.2854
-49.4708 1.38516 -43.6129
-48.5969 1.37638 -42.9803
-47.7232 1.26544 -42.3655
-46.921 1.40318 -41.6825
-46.0505 1.1634 -41.0885
-45.309 1.30718 -40.4238
-44.4674 0.985037 -39.8635
-43.6871 1.03623 -39.1689
-42.5117 0.92941 -38.6034
-42.1614 1.49232 -38.4229
-41.3935 1.27041 -37.4961
-40.2559 0.907055 -36.7734
-39.1936 0.59422 -36.0506
-38.5391 0.345748 -35.2707
-37.5865 0.344688 -34.3213
-36.9435 0.516969 -34.3213
-36.3777 0.561129 -33.3444
-35.4577 0.748306 -33.3444
-34.8395 0.846224 -33.3444
-34.1038 -0.165685 -33.0409
-33.225 -0.0965182 -33.0409
-32.6376 -0.0760061 -33.0409
-31.756 -0.0836991 -33.0409
-31.1691 -0.114459 -33.0409
-30.5836 -0.165685 -33.0409
-29.7096 -0.280752 -33.0409
-28.922 0.691269 -33.3444
-28.3097 0.561129 -33.3444
-27.7024 0.409701 -33.3444
-26.8022 0.143053 -33.3444
-26.1213 0.0444633 -34.3213
-25.1068 0.830394 -34.6636
-24.4544 0.566843 -34.6636
-23.9581 0.72513 -35.6333
-23.1514 0.896613 -36.4319
-21.9687 1.08986 -37.1731
-21.6009 0.57924 -37.4961
-20.7311 0.743957 -38.4229
-20.2577 0.831764 -39.1689
-19.3834 1.13206 -39.7524
-18.4948 1.07318 -40.4238
-17.5352 1.31558 -41.001
-16.5786 1.50732 -41.5877
-16.0394 1.62661 -42.2824
-15.0554 1.80442 -42.896
-14.606 1.50693 -42.896
-14.0354 1.38516 -43.6129
-12.5693 1.52177 -44.1742
-11.9921 1.65223 -44.8615
-11.5224 1.3047 -44.8615
-10.4864 1.68178 -45.4539
-10.0164 1.30796 -45.4539
-8.96211 1.6303 -46.0624
-8.40217 1.51895 -46.8005
-7.42353 1.49662 -46.6869
-6.85337 1.35692 -47.4381
-5.77552 1.56643 -48.0913
-4.78609 1.45221 -47.983
-4.32101 0.978949 -47.983
-3.86198 1.12649 -47.8833
-2.74359 1.71714 -48.484
-1.83248 1.11288 -48.4131
-1.3777 0.94445 -48.3427
-0.700086 1.49317 -49.0363
0.188974 0.737149 -48.9663
1.33462 1.04676 -49.5981
1.33462 1.04676 -49.5981
2.49267 1.35045 -50.2609
2.93272 1.12893 -50.1907
4.04617 0.972449 -50.9358
4.74145 1.42397 -51.6954
5.22931 1.13212 -51.6328
6.33207 0.897723 -52.4089
7.02136 1.31189 -53.1991
7.50658 0.990451 -53.1227
8.59313 0.678889 -53.9289
8.59313 0.678889 -53.9289
9.7613 0.724927 -54.6558
10.4373 1.08437 -55.4913
11.4953 0.678255 -56.3401
11.4953 0.678255 -56.3401
12.6602 0.688541 -57.1321
13.3102 1.0056 -58.0095
14.3322 0.507158 -58.8994
14.7877 0.0750523 -58.7621
15.4214 0.357201 -59.6662
16.0407 0.63289 -60.5822
17.0174 0.0460214 -61.5099
17.6115 0.298209 -62.449
18.1904 0.543954 -63.3992
19.1238 -0.109616 -64.3602
19.7088 0.396515 -65.1287
20.7324 0.540273 -67.3054
21.132 -0.104429 -67.1043
21.6401 0.0906226 -68.1068
22.607 0.46177 -70.1394
23.0655 0.637752 -71.1689
23.8891 0.1309 -71.9423
24.727 0.435882 -74.043
25.4955 0.715603 -76.1736
26.2137 -0.171179 -77.2493
27.1869 0.163934 -80.5138
27.7454 0.356236 -82.7182
28.5849 -0.535129 -84.9419
29.0027 -0.0725378 -86.8644
-91.653 1.28842 -77.627
-90.9839 1.07102 -75.4617
-90.6225 0.953591 -74.3886
-90.0814 1.00385 -74.076
-89.272 0.72513 -71.9571
-88.4927 1.56082 -70.9092
-88.0474 1.39875 -69.8693
-86.6993 1.34542 -68.2211
-86.2069 1.15639 -67.2079
-86.2069 1.15639 -67.2079
-84.8103 1.67991 -65.2098
-84.7463 1.24155 -65.5246
-83.8349 1.92834 -64.5412
-83.2777 1.36713 -63.8884
-82.3317 2.00522 -62.926
-81.7563 1.74904 -61.9744
-81.1409 1.18592 -61.3029
-80.153 1.75623 -60.3743
-79.5381 1.46949 -59.4573
-78.5218 1.98732 -58.5524
-77.8836 1.67604 -57.6597
-77.2315 1.35798 -56.7795
-76.1816 1.80366 -55.9122
-75.5081 1.46052 -55.0579
-75.1167 2.21242 -55.0579
-74.4363 1.85063 -54.2169
-73.3515 2.2031 -53.3895
-72.6522 1.8155 -52.5759
-71.9407 1.42107 -51.7764
-70.8339 1.69701 -50.9912
-70.8339 1.69701 -50.9912
-69.6609 1.64951 -50.4388
-68.5387 1.84738 -49.6837
-67.8039 1.38821 -48.9436
-67.4103 2.00596 -48.9436
-66.6729 1.52707 -48.2188
-66.1885 1.73745 -48.3785
-65.0542 1.81677 -47.6707
-64.5105 1.92793 -47.7721
-63.3775 1.94771 -47.0822
-63.3775 1.94771 -47.0822
-62.4459 2.62134 -47.1947
-61.219 2.19263 -46.6159
-61.219 2.19263 -46.6159
-60.6888 2.33746 -46.6919
-59.4392 1.83229 -46.1194
-58.4485 2.36846 -46.1938
-57.9086 2.45449 -46.2791
-57.3554 2.5498 -46.3548
-56.794 2.62564 -46.4293
-55.7108 2.37555 -45.7996
-55.1306 2.35707 -45.8768
-54.0645 2.05138 -45.2647
-53.0015 2.31431 -45.3463
-52.5236 2.681 -45.3463
-51.4911 2.28467 -44.7521
-50.8701 1.99151 -44.8615
-50.3886 2.32244 -44.8615
-49.5287 2.48958 -44.1742
-48.6549 2.4839 -43.5264
-47.7814 2.37566 -42.896
-46.9794 2.51811 -42.198
-46.109 2.2806 -41.5877
-45.2717 2.04188 -41.001
-44.5265 2.11089 -40.3311
-43.7027 1.76889 -39.7524
-42.9557 1.88151 -39.0386
-41.7699 1.66253 -38.4229
-41.0157 1.42691 -37.4961
-40.2559 2.04825 -37.1731
-39.5442 1.61234 -36.4319
-38.5191 1.48824 -35.6333
-37.8857 1.38834 -34.6636
-37.2062 1.57042 -34.6636
-36.2949 0.666707 -34.3213
-35.4577 0.748306 -33.3444
-34.8395 0.846224 -33.3444
-33.9066 0.952505 -33.3444
-33.2822 0.996168 -33.3444
-32.6567 1.01801 -33.3444
-32.0307 1.01801 -33.3444
-31.0928 0.977061 -33.3444
-30.4692 0.922507 -33.3444
-29.8479 0.846224 -33.3444
-28.922 0.691269 -33.3444
-28.0648 1.62195 -33.6669
-27.4206 1.46133 -33.6669
-26.7743 1.38834 -34.6636
-26.1015 1.18264 -34.6636
-25.4363 0.953591 -34.6636
-24.375 1.70242 -35.0248
-23.9581 0.72513 -35.6333
-23.1514 0.896613 -36.4319
-22.7081 1.10735 -37.4961
-21.5015 1.71597 -37.9144
-21.0379 1.69024 -39.0386
-20.1787 1.96224 -39.6208
-18.8847 2.03169 -40.2211
-18.4164 2.19484 -40.9078
-17.457 2.43446 -41.5015
-16.4949 2.25207 -42.198
-15.981 2.73918 -42.814
-15.51 2.09403 -42.896
-14.5284 2.61596 -43.4434
-13.5025 2.17519 -44.1742
-12.9492 2.32244 -44.8615
-12.4677 1.99151 -44.8615
-11.4455 2.40452 -45.4539
-10.4253 1.97234 -46.1785
-9.9382 1.59854 -46.1785
-8.88815 1.91957 -46.8005
-7.82755 2.20376 -47.4381
-7.82755 2.20376 -47.4381
-6.82291 2.16367 -47.3271
-5.74066 2.37403 -47.983
-5.25935 1.91729 -47.983
-4.78667 2.08403 -47.8833
-3.84841 1.62048 -47.8088
-2.73057 2.14601 -48.4131
-2.25948 1.99532 -48.3427
-1.14607 2.0342 -49.0363
-0.676166 1.84448 -48.9663
0.469077 2.19538 -49.5981
0.906861 1.62485 -49.5981
2.06534 1.94953 -50.2609
2.06534 1.94953 -50.2609
3.20473 2.21993 -50.9358
3.70265 1.95698 -50.8711
4.81617 1.78062 -51.6328
4.81617 1.78062 -51.6328
5.99954 1.93342 -52.3304
6.60481 1.99163 -53.1991
7.10091 1.67915 -53.1227
8.19272 1.3866 -53.9289
9.36581 1.45331 -54.6558
9.36581 1.45331 -54.6558
10.0354 1.8245 -55.4913
11.1003 1.43691 -56.3401
12.2715 1.46808 -57.1321
12.2715 1.46808 -57.1321
13.3102 1.0056 -58.0095
13.9464 1.3159 -58.8994
15.0441 1.18531 -59.6662
15.6584 1.47177 -60.5822
16.6452 0.902034 -61.5099
17.2348 1.16455 -62.449
17.2348 1.16455 -62.449
18.754 0.783183 -64.3602
19.3021 1.01582 -65.3318
19.8676 1.52603 -66.1115
20.7664 0.823798 -67.1043
21.271 1.02769 -68.1068
21.7594 1.22499 -69.1185
22.2313 1.41565 -70.1394
23.0822 0.937762 -70.9039
23.524 1.10735 -71.9423
25.12 0.578922 -75.1047
25.4955 0.715603 -76.1736
25.8535 0.845883 -77.2493
26.8207 1.19793 -80.5138
27.7489 0.684345 -82.4
28.2308 0.523373 -84.9419
28.6461 0.993286 -86.8644
-91.653 1.28842 -77.627
-91.3275 1.18264 -76.5413
-90.2831 1.96805 -74.3886
-89.9061 1.83826 -73.3223
-88.9208 1.71667 -71.9571
-88.4927 1.56082 -70.9092
-87.6847 2.36881 -69.8693
-87.2254 2.19251 -68.8379
-86.3263 2.2924 -68.2211
-85.8373 2.09481 -67.2079
-85.3319 1.89063 -66.204
-84.3681 2.15466 -65.5246
-83.8349 1.92834 -64.5412
-82.9001 2.58291 -63.5682
-82.3317 2.00522 -62.926
-81.364 2.60989 -61.9744
-80.7782 2.33674 -61.034
-80.1777 2.05669 -60.105
-79.1702 2.59239 -59.1877
-78.5458 2.28787 -58.2824
-77.4881 2.46937 -57.6597
-76.8416 2.13997 -56.7795
-75.784 2.56726 -55.9122
