ply
format ascii 1.0
comment VCGLIB generated
element vertex 1641
property float x
property float y
property float z
property float nx
property float ny
property float nz
element face 0
property list uchar int vertex_indices
end_header
42.446 -40.743 16.062 0 0 0 
43.238 -40.794 15.163 0 0 0 
44.062 -40.865 13.851 0 0 0 
44.875 -40.919 12.798 0 0 0 
45.68 -40.962 11.886 0 0 0 
46.535 -41.052 10.024 0 0 0 
47.321 -41.072 8.369 0 0 0 
48.106 -41.088 7.106 0 0 0 
48.915 -41.123 4.911 0 0 0 
49.719 -41.152 2.97 0 0 0 
50.536 -41.193 0.573 0 0 0 
51.377 -41.263 -1.799 0 0 0 
52.281 -41.403 -5.683 0 0 0 
53.18 -41.542 -9.326 0 0 0 
54.092 -41.634 -12.077 0 0 0 
55.211 -41.811 -18.03 0 0 0 
-85.196 -41.033 -7.798 0 0 0 
-84.271 -40.936 -5.561 0 0 0 
-83.254 -40.805 -2.123 0 0 0 
-82.315 -40.727 0.331 0 0 0 
-81.451 -40.683 2.112 0 0 0 
-80.583 -40.632 3.898 0 0 0 
-79.715 -40.574 5.66 0 0 0 
-78.842 -40.509 7.448 0 0 0 
-77.981 -40.447 8.988 0 0 0 
-77.14 -40.398 10.471 0 0 0 
-76.326 -40.369 11.91 0 0 0 
-75.529 -40.349 12.91 0 0 0 
-74.73 -40.325 13.973 0 0 0 
-73.943 -40.306 14.748 0 0 0 
-73.159 -40.289 15.444 0 0 0 
-72.371 -40.266 16.256 0 0 0 
-71.575 -40.237 17.254 0 0 0 
-70.786 -40.211 18.014 0 0 0 
-70.008 -40.194 18.458 0 0 0 
-69.216 -40.161 19.266 0 0 0 
-68.435 -40.137 19.745 0 0 0 
-67.649 -40.109 20.349 0 0 0 
-66.867 -40.083 20.917 0 0 0 
-66.085 -40.055 21.559 0 0 0 
-65.318 -40.041 21.865 0 0 0 
-64.548 -40.025 22.242 0 0 0 
-63.782 -40.012 22.573 0 0 0 
-63.015 -39.998 22.965 0 0 0 
-62.249 -39.985 23.368 0 0 0 
-61.486 -39.977 23.687 0 0 0 
-60.717 -39.965 24.223 0 0 0 
-59.954 -39.959 24.54 0 0 0 
-59.197 -39.958 24.658 0 0 0 
-58.435 -39.952 25.009 0 0 0 
-57.674 -39.947 25.373 0 0 0 
-56.915 -39.943 25.653 0 0 0 
-56.15 -39.939 25.984 0 0 0 
-55.389 -39.938 26.18 0 0 0 
-54.624 -39.933 26.537 0 0 0 
-53.862 -39.93 26.809 0 0 0 
-53.102 -39.931 26.908 0 0 0 
-52.34 -39.928 27.173 0 0 0 
-51.579 -39.925 27.477 0 0 0 
-50.823 -39.925 27.621 0 0 0 
-50.066 -39.924 27.861 0 0 0 
-49.308 -39.92 28.208 0 0 0 
-48.552 -39.919 28.436 0 0 0 
-47.797 -39.919 28.609 0 0 0 
-47.041 -39.916 28.919 0 0 0 
-46.282 -39.905 29.213 0 0 0 
-45.522 -39.891 29.458 0 0 0 
-44.762 -39.879 29.631 0 0 0 
-44.001 -39.865 29.833 0 0 0 
-43.241 -39.853 29.946 0 0 0 
-42.476 -39.832 30.24 0 0 0 
-41.71 -39.811 30.502 0 0 0 
-40.946 -39.788 30.618 0 0 0 
-40.181 -39.765 30.74 0 0 0 
-39.416 -39.74 30.901 0 0 0 
-38.651 -39.716 31.063 0 0 0 
-37.887 -39.692 31.231 0 0 0 
-37.122 -39.667 31.432 0 0 0 
-36.359 -39.646 31.586 0 0 0 
-35.597 -39.626 31.74 0 0 0 
-34.836 -39.607 31.891 0 0 0 
-34.075 -39.59 31.993 0 0 0 
-33.314 -39.569 32.212 0 0 0 
-32.553 -39.55 32.394 0 0 0 
-31.792 -39.528 32.724 0 0 0 
-31.039 -39.509 33.047 0 0 0 
-30.29 -39.492 33.337 0 0 0 
-29.54 -39.467 33.977 0 0 0 
-28.792 -39.445 34.471 0 0 0 
-28.045 -39.421 35.065 0 0 0 
-27.296 -39.383 36.245 0 0 0 
-26.551 -39.351 37.154 0 0 0 
-25.811 -39.316 38.338 0 0 0 
-25.06 -39.254 40.411 0 0 0 
-24.272 -39.181 42.172 0 0 0 
-23.465 -39.089 44.498 0 0 0 
-22.678 -39.027 46.046 0 0 0 
-21.85 -38.92 48.842 0 0 0 
-21.059 -38.853 50.664 0 0 0 
-20.285 -38.786 52.572 0 0 0 
-19.519 -38.737 54.024 0 0 0 
-18.763 -38.71 54.873 0 0 0 
-18.007 -38.682 55.738 0 0 0 
-17.258 -38.669 56.209 0 0 0 
-16.506 -38.65 56.855 0 0 0 
-15.768 -38.646 57.06 0 0 0 
-15.031 -38.639 57.322 0 0 0 
-14.292 -38.628 57.734 0 0 0 
-13.558 -38.627 57.824 0 0 0 
-12.825 -38.627 57.886 0 0 0 
-12.093 -38.632 57.803 0 0 0 
-11.362 -38.637 57.698 0 0 0 
-10.637 -38.648 57.443 0 0 0 
-9.914 -38.662 57.12 0 0 0 
-9.187 -38.67 56.975 0 0 0 
-8.464 -38.684 56.645 0 0 0 
-7.741 -38.699 56.288 0 0 0 
-7.022 -38.72 55.74 0 0 0 
-6.304 -38.742 55.14 0 0 0 
-5.59 -38.768 54.354 0 0 0 
-4.886 -38.812 53.029 0 0 0 
-4.209 -38.897 50.345 0 0 0 
-3.54 -39.057 45.055 0 0 0 
-2.847 -39.213 40.017 0 0 0 
-2.056 -39.286 37.438 0 0 0 
-1.292 -39.321 36.262 0 0 0 
-0.527 -39.357 35.087 0 0 0 
0.241 -39.398 33.823 0 0 0 
0.996 -39.419 33.276 0 0 0 
1.751 -39.441 32.769 0 0 0 
2.504 -39.458 32.419 0 0 0 
3.256 -39.474 32.116 0 0 0 
3.995 -39.487 31.973 0 0 0 
4.732 -39.496 31.949 0 0 0 
5.468 -39.502 31.983 0 0 0 
6.203 -39.509 32.024 0 0 0 
6.936 -39.513 32.126 0 0 0 
7.67 -39.519 32.181 0 0 0 
8.407 -39.525 32.216 0 0 0 
9.149 -39.533 32.245 0 0 0 
9.887 -39.536 32.373 0 0 0 
10.625 -39.538 32.5 0 0 0 
11.366 -39.545 32.536 0 0 0 
12.109 -39.554 32.508 0 0 0 
12.855 -39.567 32.407 0 0 0 
13.607 -39.572 32.347 0 0 0 
14.367 -39.58 32.171 0 0 0 
15.131 -39.592 31.896 0 0 0 
15.891 -39.598 31.743 0 0 0 
16.653 -39.607 31.524 0 0 0 
17.421 -39.622 31.18 0 0 0 
18.192 -39.641 30.75 0 0 0 
18.964 -39.64 30.567 0 0 0 
19.741 -39.643 30.245 0 0 0 
20.515 -39.646 29.892 0 0 0 
21.28 -39.641 29.651 0 0 0 
22.047 -39.64 29.293 0 0 0 
22.814 -39.639 28.91 0 0 0 
23.578 -39.632 28.782 0 0 0 
24.341 -39.632 28.472 0 0 0 
25.107 -39.636 27.993 0 0 0 
25.87 -39.636 27.706 0 0 0 
26.635 -39.637 27.377 0 0 0 
27.404 -39.646 26.785 0 0 0 
28.17 -39.649 26.421 0 0 0 
28.925 -39.656 26.075 0 0 0 
29.679 -39.673 25.468 0 0 0 
30.429 -39.682 25.118 0 0 0 
31.179 -39.691 24.784 0 0 0 
31.932 -39.704 24.244 0 0 0 
32.682 -39.713 23.859 0 0 0 
33.434 -39.723 23.411 0 0 0 
34.169 -39.737 22.938 0 0 0 
34.906 -39.753 22.33 0 0 0 
35.639 -39.762 21.951 0 0 0 
36.372 -39.773 21.47 0 0 0 
37.109 -39.79 20.692 0 0 0 
37.84 -39.794 20.421 0 0 0 
38.579 -39.808 19.854 0 0 0 
39.341 -39.838 19.17 0 0 0 
40.1 -39.861 18.674 0 0 0 
40.867 -39.89 18.07 0 0 0 
41.667 -39.954 16.813 0 0 0 
42.44 -39.982 16.269 0 0 0 
43.24 -40.035 15.286 0 0 0 
44.056 -40.097 14.121 0 0 0 
44.871 -40.152 13.025 0 0 0 
45.691 -40.208 11.849 0 0 0 
46.516 -40.266 10.594 0 0 0 
47.333 -40.309 8.596 0 0 0 
48.117 -40.322 7.488 0 0 0 
48.936 -40.36 5.026 0 0 0 
49.729 -40.378 3.551 0 0 0 
50.553 -40.422 0.827 0 0 0 
51.384 -40.487 -1.509 0 0 0 
52.267 -40.614 -5.037 0 0 0 
53.17 -40.767 -9.047 0 0 0 
54.07 -40.857 -11.75 0 0 0 
55.141 -40.996 -16.75 0 0 0 
-85.239 -40.255 -7.881 0 0 0 
-84.246 -40.132 -4.844 0 0 0 
-83.257 -40.029 -1.933 0 0 0 
-82.306 -39.954 0.679 0 0 0 
-81.438 -39.91 2.485 0 0 0 
-80.566 -39.858 4.308 0 0 0 
-79.715 -39.814 5.708 0 0 0 
-78.816 -39.735 7.898 0 0 0 
-77.969 -39.683 9.149 0 0 0 
-77.124 -39.634 10.794 0 0 0 
-76.319 -39.61 12.008 0 0 0 
-75.517 -39.586 13.164 0 0 0 
-74.726 -39.566 14.04 0 0 0 
-73.934 -39.542 14.971 0 0 0 
-73.155 -39.528 15.527 0 0 0 
-72.366 -39.503 16.4 0 0 0 
-71.572 -39.474 17.359 0 0 0 
-70.787 -39.452 18.017 0 0 0 
-70.002 -39.429 18.632 0 0 0 
-69.214 -39.401 19.318 0 0 0 
-68.434 -39.379 19.771 0 0 0 
-67.647 -39.351 20.393 0 0 0 
-66.87 -39.33 20.868 0 0 0 
-66.093 -39.305 21.417 0 0 0 
-65.323 -39.288 21.795 0 0 0 
-64.552 -39.268 22.263 0 0 0 
-63.786 -39.255 22.559 0 0 0 
-63.016 -39.238 23.033 0 0 0 
-62.249 -39.224 23.434 0 0 0 
-61.485 -39.215 23.783 0 0 0 
-60.716 -39.204 24.32 0 0 0 
-59.954 -39.199 24.588 0 0 0 
-59.194 -39.195 24.831 0 0 0 
-58.435 -39.191 25.074 0 0 0 
-57.674 -39.186 25.387 0 0 0 
-56.915 -39.182 25.667 0 0 0 
-56.149 -39.178 25.968 0 0 0 
-55.386 -39.177 26.129 0 0 0 
-54.618 -39.172 26.543 0 0 0 
-53.855 -39.17 26.753 0 0 0 
-53.093 -39.17 26.861 0 0 0 
-52.329 -39.167 27.131 0 0 0 
-51.567 -39.165 27.39 0 0 0 
-50.811 -39.163 27.643 0 0 0 
-50.056 -39.164 27.795 0 0 0 
-49.3 -39.16 28.14 0 0 0 
-48.545 -39.16 28.324 0 0 0 
-47.792 -39.161 28.471 0 0 0 
-47.038 -39.159 28.733 0 0 0 
-46.28 -39.15 29.006 0 0 0 
-45.521 -39.139 29.186 0 0 0 
-44.761 -39.126 29.431 0 0 0 
-44 -39.112 29.701 0 0 0 
-43.242 -39.101 29.808 0 0 0 
-42.482 -39.089 29.967 0 0 0 
-41.716 -39.066 30.304 0 0 0 
-40.951 -39.042 30.418 0 0 0 
-40.185 -39.017 30.543 0 0 0 
-39.418 -38.989 30.751 0 0 0 
-38.652 -38.962 30.941 0 0 0 
-37.888 -38.937 31.09 0 0 0 
-37.121 -38.908 31.361 0 0 0 
-36.358 -38.886 31.503 0 0 0 
-35.596 -38.867 31.697 0 0 0 
-34.833 -38.847 31.907 0 0 0 
-34.073 -38.831 32.031 0 0 0 
-33.312 -38.813 32.215 0 0 0 
-32.549 -38.789 32.619 0 0 0 
-31.789 -38.768 32.924 0 0 0 
-31.036 -38.753 33.133 0 0 0 
-30.286 -38.731 33.647 0 0 0 
-29.536 -38.709 34.171 0 0 0 
-28.787 -38.684 34.768 0 0 0 
-28.039 -38.659 35.387 0 0 0 
-27.291 -38.619 36.529 0 0 0 
-26.546 -38.589 37.353 0 0 0 
-25.807 -38.551 38.594 0 0 0 
-25.051 -38.49 40.604 0 0 0 
-24.271 -38.436 42.071 0 0 0 
-23.468 -38.356 44.279 0 0 0 
-22.67 -38.287 46.186 0 0 0 
-21.864 -38.213 48.268 0 0 0 
-21.058 -38.135 50.466 0 0 0 
-20.292 -38.086 51.854 0 0 0 
-19.524 -38.032 53.403 0 0 0 
-18.765 -37.999 54.425 0 0 0 
-18.01 -37.971 55.315 0 0 0 
-17.26 -37.956 55.83 0 0 0 
-16.514 -37.948 56.166 0 0 0 
-15.774 -37.938 56.514 0 0 0 
-15.035 -37.925 56.911 0 0 0 
-14.299 -37.918 57.13 0 0 0 
-13.564 -37.915 57.244 0 0 0 
-12.827 -37.906 57.522 0 0 0 
-12.096 -37.91 57.413 0 0 0 
-11.365 -37.915 57.258 0 0 0 
-10.643 -37.931 56.932 0 0 0 
-9.918 -37.944 56.713 0 0 0 
-9.194 -37.958 56.478 0 0 0 
-8.47 -37.974 56.209 0 0 0 
-7.749 -37.994 55.79 0 0 0 
-7.03 -38.02 55.214 0 0 0 
-6.31 -38.038 54.767 0 0 0 
-5.604 -38.077 53.479 0 0 0 
-4.906 -38.126 51.828 0 0 0 
-4.237 -38.233 47.984 0 0 0 
-3.55 -38.339 44.079 0 0 0 
-2.845 -38.473 39.564 0 0 0 
-2.062 -38.542 37.323 0 0 0 
-1.302 -38.573 36.32 0 0 0 
-0.542 -38.601 35.394 0 0 0 
0.229 -38.642 34.098 0 0 0 
0.983 -38.661 33.63 0 0 0 
1.742 -38.686 32.985 0 0 0 
2.496 -38.703 32.607 0 0 0 
3.248 -38.719 32.328 0 0 0 
3.987 -38.734 32.077 0 0 0 
4.721 -38.743 32.024 0 0 0 
5.454 -38.752 32.003 0 0 0 
6.184 -38.756 32.09 0 0 0 
6.915 -38.762 32.15 0 0 0 
7.646 -38.768 32.191 0 0 0 
8.383 -38.776 32.191 0 0 0 
9.128 -38.784 32.205 0 0 0 
9.872 -38.79 32.271 0 0 0 
10.614 -38.794 32.386 0 0 0 
11.36 -38.802 32.391 0 0 0 
12.109 -38.814 32.326 0 0 0 
12.859 -38.827 32.212 0 0 0 
13.612 -38.832 32.17 0 0 0 
14.372 -38.84 31.994 0 0 0 
15.136 -38.852 31.727 0 0 0 
15.891 -38.854 31.663 0 0 0 
16.662 -38.873 31.256 0 0 0 
17.434 -38.893 30.799 0 0 0 
18.196 -38.901 30.613 0 0 0 
18.97 -38.899 30.43 0 0 0 
19.755 -38.907 29.978 0 0 0 
20.522 -38.902 29.715 0 0 0 
21.291 -38.898 29.385 0 0 0 
22.06 -38.897 28.977 0 0 0 
22.829 -38.89 28.771 0 0 0 
23.594 -38.883 28.665 0 0 0 
24.356 -38.887 28.176 0 0 0 
25.118 -38.89 27.78 0 0 0 
25.878 -38.887 27.633 0 0 0 
26.64 -38.889 27.295 0 0 0 
27.407 -38.902 26.602 0 0 0 
28.17 -38.903 26.344 0 0 0 
28.927 -38.913 25.895 0 0 0 
29.682 -38.928 25.336 0 0 0 
30.432 -38.933 25.115 0 0 0 
31.184 -38.942 24.776 0 0 0 
31.937 -38.953 24.32 0 0 0 
32.691 -38.962 23.899 0 0 0 
33.444 -38.971 23.474 0 0 0 
34.175 -38.986 23.008 0 0 0 
34.908 -39.003 22.369 0 0 0 
35.636 -39.011 22.075 0 0 0 
36.367 -39.026 21.489 0 0 0 
37.098 -39.04 20.826 0 0 0 
37.826 -39.049 20.379 0 0 0 
38.563 -39.061 19.872 0 0 0 
39.331 -39.094 19.145 0 0 0 
40.092 -39.112 18.716 0 0 0 
40.865 -39.143 18.049 0 0 0 
41.664 -39.201 16.889 0 0 0 
42.436 -39.222 16.451 0 0 0 
43.24 -39.275 15.425 0 0 0 
44.041 -39.32 14.569 0 0 0 
44.86 -39.378 13.404 0 0 0 
45.695 -39.446 11.968 0 0 0 
46.501 -39.484 11.092 0 0 0 
47.341 -39.545 8.922 0 0 0 
48.131 -39.558 7.691 0 0 0 
48.951 -39.592 5.409 0 0 0 
49.751 -39.614 3.623 0 0 0 
50.565 -39.649 1.249 0 0 0 
51.39 -39.708 -1.17 0 0 0 
52.274 -39.847 -5.003 0 0 0 
53.154 -39.985 -8.58 0 0 0 
54.096 -40.1 -12.233 0 0 0 
55.197 -40.238 -17.6 0 0 0 
-85.266 -39.468 -7.752 0 0 0 
-84.237 -39.34 -4.39 0 0 0 
-83.227 -39.241 -1.341 0 0 0 
-82.308 -39.187 0.815 0 0 0 
-81.418 -39.134 2.974 0 0 0 
-80.569 -39.098 4.338 0 0 0 
-79.701 -39.046 5.992 0 0 0 
-78.803 -38.97 8.117 0 0 0 
-77.956 -38.921 9.304 0 0 0 
-77.116 -38.876 10.881 0 0 0 
-76.313 -38.852 12.085 0 0 0 
-75.509 -38.825 13.313 0 0 0 
-74.724 -38.808 14.045 0 0 0 
-73.934 -38.786 14.94 0 0 0 
-73.151 -38.766 15.645 0 0 0 
-72.364 -38.74 16.512 0 0 0 
-71.573 -38.715 17.367 0 0 0 
-70.784 -38.69 18.129 0 0 0 
-69.998 -38.665 18.781 0 0 0 
-69.213 -38.641 19.356 0 0 0 
-68.429 -38.617 19.891 0 0 0 
-67.646 -38.594 20.433 0 0 0 
-66.872 -38.576 20.822 0 0 0 
-66.095 -38.549 21.445 0 0 0 
-65.326 -38.532 21.808 0 0 0 
-64.555 -38.512 22.261 0 0 0 
-63.789 -38.498 22.585 0 0 0 
-63.019 -38.48 23.038 0 0 0 
-62.25 -38.465 23.47 0 0 0 
-61.482 -38.453 23.918 0 0 0 
-60.717 -38.445 24.312 0 0 0 
-59.953 -38.437 24.681 0 0 0 
-59.193 -38.433 24.916 0 0 0 
-58.434 -38.429 25.131 0 0 0 
-57.674 -38.425 25.411 0 0 0 
-56.916 -38.422 25.625 0 0 0 
-56.148 -38.418 25.926 0 0 0 
-55.383 -38.416 26.115 0 0 0 
-54.617 -38.414 26.347 0 0 0 
-53.85 -38.411 26.615 0 0 0 
-53.085 -38.409 26.797 0 0 0 
-52.318 -38.406 27.079 0 0 0 
-51.556 -38.404 27.308 0 0 0 
-50.799 -38.401 27.66 0 0 0 
-50.047 -38.403 27.738 0 0 0 
-49.292 -38.401 28.046 0 0 0 
-48.538 -38.4 28.262 0 0 0 
-47.787 -38.401 28.401 0 0 0 
-47.034 -38.4 28.65 0 0 0 
-46.277 -38.392 28.915 0 0 0 
-45.52 -38.385 28.986 0 0 0 
-44.762 -38.374 29.169 0 0 0 
-44 -38.359 29.541 0 0 0 
-43.242 -38.349 29.656 0 0 0 
-42.484 -38.338 29.821 0 0 0 
-41.724 -38.325 30.023 0 0 0 
-40.954 -38.293 30.279 0 0 0 
-40.189 -38.267 30.382 0 0 0 
-39.423 -38.24 30.521 0 0 0 
-38.654 -38.209 30.794 0 0 0 
-37.888 -38.181 30.987 0 0 0 
-37.122 -38.153 31.19 0 0 0 
-36.357 -38.128 31.393 0 0 0 
-35.595 -38.11 31.576 0 0 0 
-34.831 -38.088 31.912 0 0 0 
-34.071 -38.072 32.041 0 0 0 
-33.31 -38.054 32.287 0 0 0 
-32.546 -38.029 32.765 0 0 0 
-31.787 -38.013 32.952 0 0 0 
-31.033 -37.995 33.31 0 0 0 
-30.282 -37.975 33.775 0 0 0 
-29.532 -37.95 34.358 0 0 0 
-28.782 -37.925 34.978 0 0 0 
-28.034 -37.896 35.682 0 0 0 
-27.286 -37.857 36.766 0 0 0 
-26.542 -37.826 37.515 0 0 0 
-25.803 -37.789 38.731 0 0 0 
-25.048 -37.735 40.566 0 0 0 
-24.267 -37.686 42.07 0 0 0 
-23.477 -37.63 43.821 0 0 0 
-22.667 -37.553 46.168 0 0 0 
-21.877 -37.503 47.716 0 0 0 
-21.07 -37.436 49.742 0 0 0 
-20.296 -37.379 51.338 0 0 0 
-19.531 -37.332 52.652 0 0 0 
-18.769 -37.292 53.869 0 0 0 
-18.015 -37.266 54.68 0 0 0 
-17.264 -37.246 55.384 0 0 0 
-16.518 -37.239 55.709 0 0 0 
-15.779 -37.229 55.994 0 0 0 
-15.04 -37.215 56.383 0 0 0 
-14.305 -37.207 56.549 0 0 0 
-13.569 -37.198 56.775 0 0 0 
-12.834 -37.193 56.868 0 0 0 
-12.101 -37.191 56.885 0 0 0 
-11.37 -37.194 56.716 0 0 0 
-10.646 -37.21 56.52 0 0 0 
-9.923 -37.228 56.253 0 0 0 
-9.2 -37.245 56.033 0 0 0 
-8.479 -37.268 55.629 0 0 0 
-7.758 -37.292 55.187 0 0 0 
-7.037 -37.317 54.769 0 0 0 
-6.322 -37.349 53.944 0 0 0 
-5.622 -37.397 52.256 0 0 0 
-4.931 -37.453 50.234 0 0 0 
-4.254 -37.531 46.484 0 0 0 
-3.556 -37.603 43.628 0 0 0 
-2.849 -37.723 39.476 0 0 0 
-2.073 -37.791 37.443 0 0 0 
-1.312 -37.825 36.368 0 0 0 
-0.552 -37.852 35.498 0 0 0 
0.214 -37.885 34.448 0 0 0 
0.97 -37.905 33.927 0 0 0 
1.732 -37.931 33.205 0 0 0 
2.488 -37.949 32.799 0 0 0 
3.244 -37.967 32.436 0 0 0 
3.98 -37.982 32.159 0 0 0 
4.711 -37.993 32.047 0 0 0 
5.44 -38.001 32.033 0 0 0 
6.167 -38.006 32.108 0 0 0 
6.894 -38.012 32.153 0 0 0 
7.62 -38.016 32.245 0 0 0 
8.355 -38.024 32.246 0 0 0 
9.106 -38.033 32.227 0 0 0 
9.855 -38.042 32.241 0 0 0 
10.602 -38.048 32.313 0 0 0 
11.353 -38.058 32.283 0 0 0 
12.108 -38.072 32.166 0 0 0 
12.863 -38.087 32.021 0 0 0 
13.619 -38.094 31.94 0 0 0 
14.378 -38.102 31.769 0 0 0 
15.142 -38.113 31.521 0 0 0 
15.9 -38.119 31.394 0 0 0 
16.672 -38.139 30.963 0 0 0 
17.438 -38.153 30.674 0 0 0 
18.199 -38.16 30.504 0 0 0 
18.983 -38.165 30.155 0 0 0 
19.759 -38.165 29.773 0 0 0 
20.529 -38.158 29.521 0 0 0 
21.3 -38.151 29.291 0 0 0 
22.072 -38.149 28.82 0 0 0 
22.843 -38.141 28.632 0 0 0 
23.609 -38.135 28.465 0 0 0 
24.369 -38.139 27.998 0 0 0 
25.128 -38.141 27.688 0 0 0 
25.885 -38.139 27.525 0 0 0 
26.645 -38.143 27.157 0 0 0 
27.41 -38.155 26.519 0 0 0 
28.169 -38.156 26.308 0 0 0 
28.927 -38.167 25.842 0 0 0 
29.682 -38.18 25.34 0 0 0 
30.434 -38.184 25.151 0 0 0 
31.189 -38.194 24.733 0 0 0 
31.943 -38.201 24.389 0 0 0 
32.699 -38.212 23.922 0 0 0 
33.454 -38.219 23.557 0 0 0 
34.184 -38.238 22.942 0 0 0 
34.911 -38.253 22.445 0 0 0 
35.634 -38.262 22.129 0 0 0 
36.362 -38.279 21.473 0 0 0 
37.086 -38.289 21.049 0 0 0 
37.811 -38.303 20.408 0 0 0 
38.542 -38.309 19.993 0 0 0 
39.317 -38.345 19.21 0 0 0 
40.083 -38.363 18.765 0 0 0 
40.859 -38.392 18.125 0 0 0 
41.663 -38.45 16.941 0 0 0 
42.435 -38.466 16.571 0 0 0 
43.244 -38.519 15.506 0 0 0 
44.041 -38.557 14.735 0 0 0 
44.843 -38.597 13.901 0 0 0 
45.695 -38.682 12.143 0 0 0 
46.496 -38.713 11.381 0 0 0 
47.343 -38.778 9.522 0 0 0 
48.146 -38.796 7.819 0 0 0 
48.967 -38.825 5.685 0 0 0 
49.77 -38.848 3.783 0 0 0 
50.579 -38.878 1.565 0 0 0 
51.401 -38.934 -0.984 0 0 0 
52.281 -39.079 -4.926 0 0 0 
53.151 -39.216 -8.458 0 0 0 
54.058 -39.318 -11.659 0 0 0 
55.112 -39.426 -16.168 0 0 0 
-85.258 -38.666 -7.213 0 0 0 
-84.264 -38.568 -4.417 0 0 0 
-83.235 -38.472 -1.255 0 0 0 
-82.291 -38.412 1.302 0 0 0 
-81.409 -38.365 3.269 0 0 0 
-80.564 -38.333 4.518 0 0 0 
-79.662 -38.264 6.708 0 0 0 
-78.789 -38.205 8.343 0 0 0 
-77.944 -38.158 9.467 0 0 0 
-77.107 -38.115 11.044 0 0 0 
-76.302 -38.091 12.273 0 0 0 
-75.505 -38.067 13.346 0 0 0 
-74.717 -38.048 14.172 0 0 0 
-73.933 -38.028 14.94 0 0 0 
-73.145 -38.003 15.811 0 0 0 
-72.364 -37.98 16.532 0 0 0 
-71.577 -37.959 17.277 0 0 0 
-70.783 -37.929 18.176 0 0 0 
-69.997 -37.906 18.821 0 0 0 
-69.216 -37.886 19.295 0 0 0 
-68.43 -37.861 19.855 0 0 0 
-67.645 -37.837 20.456 0 0 0 
-66.874 -37.822 20.819 0 0 0 
-66.098 -37.795 21.441 0 0 0 
-65.328 -37.774 21.869 0 0 0 
-64.559 -37.756 22.267 0 0 0 
-63.792 -37.74 22.612 0 0 0 
-63.022 -37.723 23.036 0 0 0 
-62.251 -37.706 23.494 0 0 0 
-61.48 -37.691 24.038 0 0 0 
-60.718 -37.685 24.306 0 0 0 
-59.952 -37.676 24.747 0 0 0 
-59.192 -37.671 24.987 0 0 0 
-58.435 -37.669 25.142 0 0 0 
-57.674 -37.664 25.42 0 0 0 
-56.916 -37.661 25.611 0 0 0 
-56.145 -37.656 25.97 0 0 0 
-55.378 -37.654 26.159 0 0 0 
-54.613 -37.654 26.264 0 0 0 
-53.845 -37.651 26.494 0 0 0 
-53.076 -37.648 26.775 0 0 0 
-52.307 -37.644 27.067 0 0 0 
-51.545 -37.644 27.22 0 0 0 
-50.79 -37.643 27.487 0 0 0 
-50.038 -37.643 27.652 0 0 0 
-49.285 -37.643 27.891 0 0 0 
-48.534 -37.643 28.067 0 0 0 
-47.782 -37.642 28.309 0 0 0 
-47.032 -37.644 28.444 0 0 0 
-46.275 -37.635 28.786 0 0 0 
-45.518 -37.629 28.877 0 0 0 
-44.762 -37.622 28.951 0 0 0 
-44.004 -37.612 29.157 0 0 0 
-43.244 -37.6 29.436 0 0 0 
-42.487 -37.59 29.595 0 0 0 
-41.729 -37.58 29.734 0 0 0 
-40.962 -37.55 29.975 0 0 0 
-40.194 -37.52 30.156 0 0 0 
-39.427 -37.492 30.293 0 0 0 
-38.659 -37.46 30.526 0 0 0 
-37.889 -37.425 30.868 0 0 0 
-37.122 -37.396 31.063 0 0 0 
-36.357 -37.37 31.274 0 0 0 
-35.596 -37.355 31.417 0 0 0 
-34.83 -37.33 31.849 0 0 0 
-34.069 -37.314 32.056 0 0 0 
-33.307 -37.295 32.353 0 0 0 
-32.545 -37.274 32.736 0 0 0 
-31.786 -37.259 32.945 0 0 0 
-31.029 -37.235 33.539 0 0 0 
-30.279 -37.218 33.905 0 0 0 
-29.527 -37.189 34.63 0 0 0 
-28.778 -37.167 35.126 0 0 0 
-28.029 -37.136 35.867 0 0 0 
-27.281 -37.094 36.951 0 0 0 
-26.537 -37.063 37.666 0 0 0 
-25.798 -37.02 39.068 0 0 0 
-25.046 -36.98 40.485 0 0 0 
-24.262 -36.936 42.116 0 0 0 
-23.475 -36.889 43.758 0 0 0 
-22.67 -36.826 45.94 0 0 0 
-21.883 -36.782 47.406 0 0 0 
-21.089 -36.732 49.044 0 0 0 
-20.299 -36.67 50.888 0 0 0 
-19.537 -36.629 52.035 0 0 0 
-18.775 -36.588 53.224 0 0 0 
-18.021 -36.562 54.05 0 0 0 
-17.269 -36.541 54.773 0 0 0 
-16.522 -36.528 55.278 0 0 0 
-15.783 -36.518 55.528 0 0 0 
-15.046 -36.504 55.848 0 0 0 
-14.309 -36.491 56.13 0 0 0 
-13.573 -36.48 56.324 0 0 0 
-12.839 -36.474 56.397 0 0 0 
-12.105 -36.469 56.44 0 0 0 
-11.375 -36.469 56.254 0 0 0 
-10.652 -36.49 56.004 0 0 0 
-9.929 -36.511 55.768 0 0 0 
-9.208 -36.535 55.429 0 0 0 
-8.489 -36.564 54.937 0 0 0 
-7.766 -36.59 54.591 0 0 0 
-7.046 -36.621 54.116 0 0 0 
-6.337 -36.668 52.876 0 0 0 
-5.639 -36.715 51.065 0 0 0 
-4.95 -36.758 48.655 0 0 0 
-4.266 -36.812 45.362 0 0 0 
-3.565 -36.87 42.939 0 0 0 
-2.849 -36.98 39.194 0 0 0 
-2.08 -37.045 37.395 0 0 0 
-1.324 -37.074 36.545 0 0 0 
-0.563 -37.102 35.636 0 0 0 
0.198 -37.127 34.864 0 0 0 
0.956 -37.148 34.279 0 0 0 
1.719 -37.173 33.568 0 0 0 
2.477 -37.193 33.083 0 0 0 
3.237 -37.213 32.601 0 0 0 
3.97 -37.228 32.326 0 0 0 
4.7 -37.241 32.126 0 0 0 
5.425 -37.249 32.107 0 0 0 
6.147 -37.253 32.204 0 0 0 
6.872 -37.26 32.195 0 0 0 
7.595 -37.266 32.249 0 0 0 
8.332 -37.276 32.18 0 0 0 
9.086 -37.286 32.153 0 0 0 
9.841 -37.296 32.131 0 0 0 
10.592 -37.303 32.185 0 0 0 
11.347 -37.313 32.168 0 0 0 
12.107 -37.33 31.998 0 0 0 
12.869 -37.348 31.808 0 0 0 
13.628 -37.358 31.666 0 0 0 
14.386 -37.364 31.548 0 0 0 
15.15 -37.377 31.273 0 0 0 
15.909 -37.384 31.13 0 0 0 
16.678 -37.401 30.766 0 0 0 
17.441 -37.411 30.561 0 0 0 
18.208 -37.426 30.251 0 0 0 
18.991 -37.427 29.898 0 0 0 
19.764 -37.422 29.536 0 0 0 
20.537 -37.414 29.302 0 0 0 
21.31 -37.407 29.036 0 0 0 
22.085 -37.403 28.608 0 0 0 
22.858 -37.393 28.436 0 0 0 
23.625 -37.386 28.267 0 0 0 
24.383 -37.392 27.772 0 0 0 
25.138 -37.393 27.526 0 0 0 
25.893 -37.392 27.378 0 0 0 
26.652 -37.398 26.949 0 0 0 
27.412 -37.407 26.437 0 0 0 
28.17 -37.412 26.13 0 0 0 
28.927 -37.421 25.756 0 0 0 
29.684 -37.433 25.276 0 0 0 
30.438 -37.437 25.073 0 0 0 
31.194 -37.445 24.701 0 0 0 
31.95 -37.452 24.399 0 0 0 
32.709 -37.463 23.894 0 0 0 
33.465 -37.47 23.55 0 0 0 
34.191 -37.489 22.948 0 0 0 
34.913 -37.502 22.548 0 0 0 
35.633 -37.515 22.13 0 0 0 
36.356 -37.53 21.557 0 0 0 
37.074 -37.54 21.159 0 0 0 
37.795 -37.554 20.569 0 0 0 
38.525 -37.562 20.076 0 0 0 
39.303 -37.595 19.294 0 0 0 
40.077 -37.618 18.742 0 0 0 
40.854 -37.642 18.17 0 0 0 
41.66 -37.697 17.024 0 0 0 
42.437 -37.713 16.622 0 0 0 
43.236 -37.75 15.823 0 0 0 
44.048 -37.802 14.77 0 0 0 
44.84 -37.831 14.138 0 0 0 
45.686 -37.908 12.51 0 0 0 
46.489 -37.939 11.72 0 0 0 
47.346 -38.013 9.982 0 0 0 
48.153 -38.029 8.268 0 0 0 
48.974 -38.054 6.27 0 0 0 
49.782 -38.078 4.203 0 0 0 
50.58 -38.098 2.391 0 0 0 
51.413 -38.16 -0.811 0 0 0 
52.265 -38.282 -4.126 0 0 0 
53.147 -38.445 -8.296 0 0 0 
54.03 -38.541 -11.246 0 0 0 
55.075 -38.635 -15.546 0 0 0 
-85.26 -37.877 -6.927 0 0 0 
-84.268 -37.789 -4.24 0 0 0 
-83.187 -37.685 -0.544 0 0 0 
-82.292 -37.646 1.412 0 0 0 
-81.403 -37.599 3.472 0 0 0 
-80.528 -37.553 5.202 0 0 0 
-79.653 -37.5 6.901 0 0 0 
-78.781 -37.444 8.48 0 0 0 
-77.932 -37.396 9.625 0 0 0 
-77.098 -37.356 11.221 0 0 0 
-76.297 -37.332 12.36 0 0 0 
-75.504 -37.311 13.32 0 0 0 
-74.712 -37.287 14.28 0 0 0 
-73.931 -37.269 14.975 0 0 0 
-73.149 -37.248 15.682 0 0 0 
-72.365 -37.222 16.506 0 0 0 
-71.58 -37.202 17.211 0 0 0 
-70.786 -37.171 18.127 0 0 0 
-70.004 -37.152 18.67 0 0 0 
-69.219 -37.129 19.248 0 0 0 
-68.434 -37.105 19.793 0 0 0 
-67.647 -37.079 20.454 0 0 0 
-66.876 -37.064 20.827 0 0 0 
-66.103 -37.039 21.378 0 0 0 
-65.328 -37.013 21.998 0 0 0 
-64.562 -36.998 22.255 0 0 0 
-63.794 -36.981 22.619 0 0 0 
-63.022 -36.962 23.094 0 0 0 
-62.253 -36.947 23.461 0 0 0 
-61.48 -36.931 24.047 0 0 0 
-60.717 -36.924 24.338 0 0 0 
-59.952 -36.916 24.741 0 0 0 
-59.191 -36.91 25.006 0 0 0 
-58.433 -36.907 25.168 0 0 0 
-57.671 -36.902 25.478 0 0 0 
-56.914 -36.899 25.632 0 0 0 
-56.143 -36.895 25.964 0 0 0 
-55.374 -36.892 26.184 0 0 0 
-54.609 -36.893 26.234 0 0 0 
-53.843 -36.892 26.384 0 0 0 
-53.073 -36.889 26.621 0 0 0 
-52.302 -36.884 26.975 0 0 0 
-51.539 -36.883 27.169 0 0 0 
-50.787 -36.885 27.312 0 0 0 
-50.034 -36.884 27.568 0 0 0 
-49.282 -36.884 27.782 0 0 0 
-48.531 -36.885 27.958 0 0 0 
-47.782 -36.886 28.097 0 0 0 
-47.032 -36.887 28.279 0 0 0 
-46.277 -36.882 28.454 0 0 0 
-45.518 -36.872 28.765 0 0 0 
-44.762 -36.866 28.85 0 0 0 
-44.005 -36.859 28.983 0 0 0 
-43.247 -36.849 29.203 0 0 0 
-42.489 -36.839 29.386 0 0 0 
-41.733 -36.831 29.512 0 0 0 
-40.966 -36.801 29.761 0 0 0 
-40.2 -36.773 29.912 0 0 0 
-39.432 -36.744 30.062 0 0 0 
-38.664 -36.713 30.266 0 0 0 
-37.894 -36.679 30.556 0 0 0 
-37.125 -36.644 30.873 0 0 0 
-36.358 -36.617 31.136 0 0 0 
-35.596 -36.601 31.318 0 0 0 
-34.831 -36.579 31.68 0 0 0 
-34.069 -36.56 31.984 0 0 0 
-33.305 -36.539 32.388 0 0 0 
-32.545 -36.523 32.662 0 0 0 
-31.785 -36.506 32.966 0 0 0 
-31.027 -36.479 33.665 0 0 0 
-30.275 -36.46 34.102 0 0 0 
-29.524 -36.436 34.674 0 0 0 
-28.773 -36.407 35.371 0 0 0 
-28.025 -36.38 35.973 0 0 0 
-27.277 -36.333 37.15 0 0 0 
-26.533 -36.3 37.862 0 0 0 
-25.794 -36.262 39.054 0 0 0 
-25.042 -36.224 40.491 0 0 0 
-24.26 -36.187 42.063 0 0 0 
-23.472 -36.145 43.743 0 0 0 
-22.683 -36.104 45.362 0 0 0 
-21.884 -36.054 47.269 0 0 0 
-21.098 -36.015 48.643 0 0 0 
-20.307 -35.969 50.245 0 0 0 
-19.539 -35.917 51.677 0 0 0 
-18.783 -35.889 52.5 0 0 0 
-18.027 -35.858 53.464 0 0 0 
-17.276 -35.838 54.146 0 0 0 
-16.53 -35.827 54.573 0 0 0 
-15.788 -35.808 55.073 0 0 0 
-15.051 -35.792 55.379 0 0 0 
-14.314 -35.776 55.703 0 0 0 
-13.577 -35.764 55.907 0 0 0 
-12.842 -35.754 56.033 0 0 0 
-12.11 -35.749 56.02 0 0 0 
-11.381 -35.749 55.796 0 0 0 
-10.661 -35.775 55.412 0 0 0 
-9.937 -35.796 55.211 0 0 0 
-9.215 -35.822 54.876 0 0 0 
-8.497 -35.855 54.3 0 0 0 
-7.773 -35.88 54.023 0 0 0 
-7.054 -35.915 53.471 0 0 0 
-6.351 -35.979 51.727 0 0 0 
-5.653 -36.018 50.017 0 0 0 
-4.965 -36.036 47.539 0 0 0 
-4.274 -36.076 44.919 0 0 0 
-3.577 -36.135 42.396 0 0 0 
-2.858 -36.234 39.175 0 0 0 
-2.093 -36.299 37.467 0 0 0 
-1.341 -36.323 36.799 0 0 0 
-0.576 -36.354 35.719 0 0 0 
0.184 -36.377 35.002 0 0 0 
0.938 -36.393 34.592 0 0 0 
1.703 -36.419 33.823 0 0 0 
2.463 -36.439 33.298 0 0 0 
3.218 -36.453 33.011 0 0 0 
3.954 -36.472 32.573 0 0 0 
4.686 -36.487 32.289 0 0 0 
5.41 -36.495 32.248 0 0 0 
6.134 -36.503 32.237 0 0 0 
6.86 -36.511 32.168 0 0 0 
7.582 -36.518 32.198 0 0 0 
8.32 -36.529 32.074 0 0 0 
9.078 -36.54 32.022 0 0 0 
9.835 -36.55 32.01 0 0 0 
10.591 -36.56 32.026 0 0 0 
11.35 -36.572 31.966 0 0 0 
12.119 -36.595 31.643 0 0 0 
12.879 -36.609 31.568 0 0 0 
13.638 -36.618 31.46 0 0 0 
14.398 -36.627 31.292 0 0 0 
15.159 -36.636 31.094 0 0 0 
15.924 -36.649 30.827 0 0 0 
16.685 -36.658 30.656 0 0 0 
17.453 -36.675 30.33 0 0 0 
18.221 -36.691 30.017 0 0 0 
18.995 -36.684 29.703 0 0 0 
19.768 -36.677 29.429 0 0 0 
20.542 -36.67 29.123 0 0 0 
21.317 -36.663 28.796 0 0 0 
22.092 -36.658 28.396 0 0 0 
22.866 -36.646 28.278 0 0 0 
23.634 -36.641 28.016 0 0 0 
24.39 -36.646 27.572 0 0 0 
25.143 -36.646 27.376 0 0 0 
25.897 -36.646 27.221 0 0 0 
26.653 -36.653 26.796 0 0 0 
27.411 -36.661 26.354 0 0 0 
28.167 -36.666 26.082 0 0 0 
28.925 -36.676 25.641 0 0 0 
29.684 -36.688 25.18 0 0 0 
30.439 -36.692 24.95 0 0 0 
31.195 -36.698 24.653 0 0 0 
31.953 -36.705 24.344 0 0 0 
32.712 -36.714 23.892 0 0 0 
33.47 -36.72 23.575 0 0 0 
34.196 -36.741 22.914 0 0 0 
34.914 -36.751 22.642 0 0 0 
35.633 -36.764 22.229 0 0 0 
36.354 -36.78 21.643 0 0 0 
37.072 -36.792 21.202 0 0 0 
37.79 -36.803 20.724 0 0 0 
38.521 -36.813 20.155 0 0 0 
39.301 -36.844 19.335 0 0 0 
40.075 -36.863 18.849 0 0 0 
40.856 -36.888 18.251 0 0 0 
41.664 -36.942 17.108 0 0 0 
42.447 -36.962 16.605 0 0 0 
43.243 -36.992 15.913 0 0 0 
44.059 -37.047 14.787 0 0 0 
44.848 -37.073 14.196 0 0 0 
45.675 -37.131 12.922 0 0 0 
46.498 -37.179 11.773 0 0 0 
47.341 -37.239 10.302 0 0 0 
48.152 -37.26 8.847 0 0 0 
48.981 -37.286 6.646 0 0 0 
49.791 -37.309 4.552 0 0 0 
50.582 -37.322 3.044 0 0 0 
51.413 -37.369 -0.197 0 0 0 
52.26 -37.493 -3.546 0 0 0 
53.133 -37.655 -7.63 0 0 0 
53.998 -37.766 -10.681 0 0 0 
54.995 -37.839 -14.308 0 0 0 
-85.245 -37.089 -6.619 0 0 0 
-84.194 -36.988 -3.299 0 0 0 
-83.162 -36.91 -0.191 0 0 0 
-82.282 -36.877 1.647 0 0 0 
-81.377 -36.824 3.95 0 0 0 
-80.508 -36.782 5.578 0 0 0 
-79.65 -36.74 6.951 0 0 0 
-78.778 -36.686 8.536 0 0 0 
-77.929 -36.64 9.688 0 0 0 
-77.096 -36.599 11.27 0 0 0 
-76.296 -36.575 12.396 0 0 0 
-75.503 -36.553 13.331 0 0 0 
-74.708 -36.525 14.394 0 0 0 
-73.929 -36.508 15.004 0 0 0 
-73.147 -36.487 15.727 0 0 0 
-72.362 -36.459 16.582 0 0 0 
-71.579 -36.44 17.247 0 0 0 
-70.79 -36.413 18.06 0 0 0 
-70.009 -36.394 18.583 0 0 0 
-69.223 -36.368 19.232 0 0 0 
-68.44 -36.344 19.753 0 0 0 
-67.652 -36.316 20.462 0 0 0 
-66.879 -36.299 20.88 0 0 0 
-66.106 -36.276 21.375 0 0 0 
-65.329 -36.25 22.025 0 0 0 
-64.563 -36.235 22.273 0 0 0 
-63.795 -36.218 22.624 0 0 0 
-63.023 -36.201 23.05 0 0 0 
-62.253 -36.185 23.423 0 0 0 
-61.481 -36.171 23.944 0 0 0 
-60.715 -36.163 24.319 0 0 0 
-59.95 -36.155 24.68 0 0 0 
-59.188 -36.15 24.945 0 0 0 
-58.43 -36.147 25.102 0 0 0 
-57.667 -36.141 25.425 0 0 0 
-56.908 -36.137 25.643 0 0 0 
-56.138 -36.133 25.941 0 0 0 
-55.371 -36.131 26.145 0 0 0 
-54.607 -36.132 26.241 0 0 0 
-53.841 -36.131 26.402 0 0 0 
-53.075 -36.13 26.553 0 0 0 
-52.304 -36.125 26.922 0 0 0 
-51.542 -36.124 27.126 0 0 0 
-50.791 -36.126 27.249 0 0 0 
-50.038 -36.126 27.438 0 0 0 
-49.285 -36.126 27.681 0 0 0 
-48.534 -36.126 27.867 0 0 0 
-47.785 -36.128 27.991 0 0 0 
-47.036 -36.13 28.104 0 0 0 
-46.281 -36.126 28.299 0 0 0 
-45.523 -36.119 28.443 0 0 0 
-44.766 -36.112 28.615 0 0 0 
-44.007 -36.102 28.881 0 0 0 
-43.25 -36.094 29.003 0 0 0 
-42.492 -36.085 29.18 0 0 0 
-41.735 -36.076 29.342 0 0 0 
-40.969 -36.048 29.571 0 0 0 
-40.204 -36.022 29.714 0 0 0 
-39.436 -35.993 29.929 0 0 0 
-38.667 -35.963 30.149 0 0 0 
-37.9 -35.934 30.336 0 0 0 
-37.128 -35.899 30.725 0 0 0 
-36.363 -35.873 30.939 0 0 0 
-35.598 -35.852 31.266 0 0 0 
-34.834 -35.834 31.527 0 0 0 
-34.07 -35.813 31.883 0 0 0 
-33.305 -35.789 32.378 0 0 0 
-32.544 -35.769 32.745 0 0 0 
-31.784 -35.753 33.025 0 0 0 
-31.025 -35.726 33.731 0 0 0 
-30.272 -35.703 34.28 0 0 0 
-29.521 -35.68 34.802 0 0 0 
-28.771 -35.652 35.466 0 0 0 
-28.022 -35.618 36.284 0 0 0 
-27.274 -35.577 37.269 0 0 0 
-26.529 -35.538 38.165 0 0 0 
-25.791 -35.509 39.033 0 0 0 
-25.035 -35.466 40.592 0 0 0 
-24.26 -35.437 41.916 0 0 0 
-23.475 -35.403 43.503 0 0 0 
-22.688 -35.367 45.086 0 0 0 
-21.894 -35.328 46.811 0 0 0 
-21.101 -35.289 48.455 0 0 0 
-20.32 -35.262 49.612 0 0 0 
-19.542 -35.206 51.312 0 0 0 
-18.786 -35.176 52.204 0 0 0 
-18.032 -35.151 52.968 0 0 0 
-17.282 -35.132 53.628 0 0 0 
-16.534 -35.119 54.118 0 0 0 
-15.795 -35.104 54.475 0 0 0 
-15.057 -35.085 54.875 0 0 0 
-14.32 -35.068 55.198 0 0 0 
-13.585 -35.057 55.357 0 0 0 
-12.852 -35.049 55.419 0 0 0 
-12.121 -35.045 55.313 0 0 0 
-11.391 -35.043 55.147 0 0 0 
-10.667 -35.061 54.951 0 0 0 
-9.945 -35.081 54.658 0 0 0 
-9.224 -35.107 54.215 0 0 0 
-8.505 -35.135 53.681 0 0 0 
-7.782 -35.158 53.395 0 0 0 
-7.069 -35.201 52.407 0 0 0 
-6.371 -35.264 50.506 0 0 0 
-5.675 -35.278 48.819 0 0 0 
-4.989 -35.306 46.348 0 0 0 
-4.29 -35.342 44.436 0 0 0 
-3.596 -35.407 41.994 0 0 0 
-2.878 -35.497 39.313 0 0 0 
-2.114 -35.556 37.675 0 0 0 
-1.362 -35.58 36.983 0 0 0 
-0.598 -35.607 35.958 0 0 0 
0.162 -35.629 35.216 0 0 0 
0.916 -35.644 34.792 0 0 0 
1.679 -35.667 34.075 0 0 0 
2.44 -35.687 33.5 0 0 0 
3.195 -35.701 33.192 0 0 0 
3.934 -35.718 32.768 0 0 0 
4.671 -35.734 32.422 0 0 0 
5.402 -35.745 32.288 0 0 0 
6.132 -35.754 32.223 0 0 0 
6.864 -35.766 32.039 0 0 0 
7.592 -35.773 32.042 0 0 0 
8.332 -35.784 31.931 0 0 0 
9.09 -35.796 31.885 0 0 0 
9.847 -35.807 31.868 0 0 0 
10.606 -35.819 31.823 0 0 0 
11.363 -35.829 31.818 0 0 0 
12.133 -35.853 31.488 0 0 0 
12.893 -35.867 31.419 0 0 0 
13.654 -35.879 31.266 0 0 0 
14.413 -35.885 31.128 0 0 0 
15.178 -35.898 30.87 0 0 0 
15.938 -35.906 30.72 0 0 0 
16.702 -35.918 30.475 0 0 0 
17.473 -35.936 30.105 0 0 0 
18.232 -35.945 29.868 0 0 0 
19.002 -35.94 29.512 0 0 0 
19.774 -35.933 29.226 0 0 0 
20.545 -35.926 28.944 0 0 0 
21.318 -35.922 28.524 0 0 0 
22.09 -35.914 28.283 0 0 0 
22.862 -35.904 28.104 0 0 0 
23.629 -35.901 27.788 0 0 0 
24.383 -35.903 27.482 0 0 0 
25.137 -35.903 27.299 0 0 0 
25.891 -35.904 27.096 0 0 0 
26.648 -35.911 26.666 0 0 0 
27.404 -35.917 26.318 0 0 0 
28.16 -35.92 26.102 0 0 0 
28.918 -35.932 25.603 0 0 0 
29.678 -35.945 25.078 0 0 0 
30.433 -35.949 24.86 0 0 0 
31.187 -35.952 24.698 0 0 0 
31.947 -35.962 24.224 0 0 0 
32.706 -35.971 23.807 0 0 0 
33.464 -35.977 23.472 0 0 0 
34.192 -35.994 22.915 0 0 0 
34.915 -36.004 22.624 0 0 0 
35.64 -36.017 22.164 0 0 0 
36.364 -36.029 21.709 0 0 0 
37.088 -36.042 21.113 0 0 0 
37.81 -36.052 20.699 0 0 0 
38.544 -36.059 20.182 0 0 0 
39.322 -36.089 19.362 0 0 0 
40.096 -36.109 18.869 0 0 0 
40.875 -36.132 18.294 0 0 0 
41.673 -36.175 17.335 0 0 0 
42.464 -36.205 16.64 0 0 0 
43.259 -36.235 15.937 0 0 0 
44.067 -36.282 14.944 0 0 0 
44.865 -36.318 14.159 0 0 0 
45.684 -36.37 12.987 0 0 0 
46.507 -36.418 11.819 0 0 0 
47.346 -36.476 10.382 0 0 0 
48.155 -36.495 9.087 0 0 0 
48.98 -36.517 6.981 0 0 0 
49.785 -36.534 5.186 0 0 0 
50.586 -36.551 3.395 0 0 0 
51.414 -36.587 0.503 0 0 0 
52.272 -36.72 -3.295 0 0 0 
53.133 -36.871 -7.038 0 0 0 
53.989 -37.001 -10.233 0 0 0 
54.962 -37.066 -13.796 0 0 0 
-86.439 -36.56 -13.723 0 0 0 
-85.178 -36.285 -5.729 0 0 0 
-84.164 -36.206 -2.878 0 0 0 
-83.135 -36.134 0.281 0 0 0 
-82.256 -36.101 2.162 0 0 0 
-81.37 -36.059 4.102 0 0 0 
-80.496 -36.016 5.791 0 0 0 
-79.654 -35.984 6.906 0 0 0 
-78.765 -35.923 8.746 0 0 0 
-77.91 -35.875 10.008 0 0 0 
-77.099 -35.846 11.207 0 0 0 
-76.293 -35.816 12.486 0 0 0 
-75.498 -35.792 13.473 0 0 0 
-74.703 -35.764 14.5 0 0 0 
-73.926 -35.747 15.069 0 0 0 
-73.144 -35.725 15.79 0 0 0 
-72.358 -35.696 16.68 0 0 0 
-71.578 -35.679 17.269 0 0 0 
-70.79 -35.651 18.092 0 0 0 
-70.012 -35.633 18.547 0 0 0 
-69.223 -35.603 19.318 0 0 0 
-68.445 -35.582 19.753 0 0 0 
-67.658 -35.555 20.43 0 0 0 
-66.882 -35.535 20.905 0 0 0 
-66.108 -35.512 21.411 0 0 0 
-65.331 -35.487 22.011 0 0 0 
-64.565 -35.473 22.259 0 0 0 
-63.794 -35.455 22.673 0 0 0 
-63.023 -35.439 23.035 0 0 0 
-62.253 -35.423 23.407 0 0 0 
-61.481 -35.41 23.884 0 0 0 
-60.714 -35.402 24.242 0 0 0 
-59.949 -35.395 24.586 0 0 0 
-59.188 -35.39 24.817 0 0 0 
-58.428 -35.387 24.998 0 0 0 
-57.665 -35.381 25.325 0 0 0 
-56.904 -35.376 25.573 0 0 0 
-56.139 -35.375 25.749 0 0 0 
-55.371 -35.373 26.007 0 0 0 
-54.607 -35.372 26.15 0 0 0 
-53.843 -35.372 26.295 0 0 0 
-53.078 -35.371 26.457 0 0 0 
-52.31 -35.368 26.74 0 0 0 
-51.547 -35.366 27.005 0 0 0 
-50.795 -35.368 27.15 0 0 0 
-50.041 -35.367 27.385 0 0 0 
-49.289 -35.367 27.598 0 0 0 
-48.539 -35.369 27.715 0 0 0 
-47.788 -35.371 27.873 0 0 0 
-47.039 -35.373 27.961 0 0 0 
-46.283 -35.368 28.191 0 0 0 
-45.528 -35.364 28.24 0 0 0 
-44.772 -35.359 28.308 0 0 0 
-44.01 -35.346 28.688 0 0 0 
-43.252 -35.338 28.878 0 0 0 
-42.496 -35.331 28.981 0 0 0 
-41.737 -35.32 29.217 0 0 0 
-40.972 -35.295 29.398 0 0 0 
-40.207 -35.27 29.566 0 0 0 
-39.439 -35.242 29.795 0 0 0 
-38.67 -35.214 30.044 0 0 0 
-37.902 -35.186 30.233 0 0 0 
-37.133 -35.155 30.525 0 0 0 
-36.366 -35.128 30.805 0 0 0 
-35.599 -35.104 31.195 0 0 0 
-34.835 -35.084 31.504 0 0 0 
-34.072 -35.066 31.771 0 0 0 
-33.305 -35.038 32.382 0 0 0 
-32.541 -35.015 32.874 0 0 0 
-31.782 -35 33.116 0 0 0 
-31.022 -34.97 33.905 0 0 0 
-30.27 -34.948 34.417 0 0 0 
-29.519 -34.923 34.989 0 0 0 
-28.768 -34.895 35.65 0 0 0 
-28.018 -34.858 36.562 0 0 0 
-27.271 -34.821 37.4 0 0 0 
-26.525 -34.777 38.421 0 0 0 
-25.787 -34.753 39.097 0 0 0 
-25.027 -34.708 40.756 0 0 0 
-24.259 -34.686 41.835 0 0 0 
-23.477 -34.657 43.335 0 0 0 
-22.691 -34.627 44.884 0 0 0 
-21.896 -34.593 46.64 0 0 0 
-21.109 -34.565 48.097 0 0 0 
-20.324 -34.54 49.384 0 0 0 
-19.545 -34.493 51.001 0 0 0 
-18.788 -34.462 51.923 0 0 0 
-18.037 -34.442 52.534 0 0 0 
-17.283 -34.417 53.368 0 0 0 
-16.539 -34.41 53.661 0 0 0 
-15.798 -34.391 54.144 0 0 0 
-15.062 -34.375 54.415 0 0 0 
-14.327 -34.36 54.677 0 0 0 
-13.59 -34.344 55 0 0 0 
-12.857 -34.337 55.028 0 0 0 
-12.126 -34.332 54.961 0 0 0 
-11.398 -34.332 54.676 0 0 0 
-10.673 -34.346 54.51 0 0 0 
-9.955 -34.37 53.944 0 0 0 
-9.233 -34.39 53.572 0 0 0 
-8.515 -34.416 52.989 0 0 0 
-7.796 -34.443 52.409 0 0 0 
-7.088 -34.488 51.191 0 0 0 
-6.387 -34.528 49.663 0 0 0 
-5.693 -34.537 48.007 0 0 0 
-5.01 -34.574 45.528 0 0 0 
-4.307 -34.608 44.069 0 0 0 
-3.614 -34.678 41.696 0 0 0 
-2.896 -34.762 39.366 0 0 0 
-2.141 -34.808 38.169 0 0 0 
-1.385 -34.835 37.266 0 0 0 
-0.622 -34.86 36.24 0 0 0 
0.137 -34.88 35.525 0 0 0 
0.895 -34.897 34.939 0 0 0 
1.659 -34.919 34.181 0 0 0 
2.416 -34.934 33.744 0 0 0 
3.175 -34.951 33.257 0 0 0 
3.92 -34.969 32.775 0 0 0 
4.659 -34.983 32.491 0 0 0 
5.394 -34.995 32.331 0 0 0 
6.13 -35.006 32.186 0 0 0 
6.868 -35.019 31.962 0 0 0 
7.601 -35.028 31.893 0 0 0 
8.345 -35.04 31.778 0 0 0 
9.104 -35.053 31.708 0 0 0 
9.862 -35.064 31.682 0 0 0 
10.62 -35.076 31.651 0 0 0 
11.382 -35.092 31.523 0 0 0 
12.147 -35.111 31.341 0 0 0 
12.909 -35.126 31.256 0 0 0 
13.668 -35.135 31.145 0 0 0 
14.429 -35.145 30.954 0 0 0 
15.195 -35.158 30.68 0 0 0 
15.953 -35.163 30.574 0 0 0 
16.726 -35.183 30.163 0 0 0 
17.487 -35.195 29.862 0 0 0 
18.242 -35.2 29.641 0 0 0 
19.011 -35.197 29.207 0 0 0 
19.779 -35.19 28.962 0 0 0 
20.549 -35.184 28.672 0 0 0 
21.318 -35.177 28.409 0 0 0 
22.088 -35.171 28.118 0 0 0 
22.858 -35.164 27.881 0 0 0 
23.623 -35.159 27.642 0 0 0 
24.377 -35.16 27.404 0 0 0 
25.13 -35.16 27.218 0 0 0 
25.885 -35.162 26.977 0 0 0 
26.642 -35.17 26.532 0 0 0 
27.398 -35.173 26.268 0 0 0 
28.152 -35.175 26.096 0 0 0 
28.913 -35.19 25.47 0 0 0 
29.67 -35.199 25.082 0 0 0 
30.425 -35.203 24.878 0 0 0 
31.18 -35.206 24.705 0 0 0 
31.941 -35.219 24.121 0 0 0 
32.699 -35.224 23.821 0 0 0 
33.457 -35.231 23.475 0 0 0 
34.189 -35.247 22.899 0 0 0 
34.917 -35.256 22.586 0 0 0 
35.645 -35.267 22.172 0 0 0 
36.374 -35.279 21.701 0 0 0 
37.105 -35.293 21.008 0 0 0 
37.83 -35.3 20.688 0 0 0 
38.568 -35.307 20.15 0 0 0 
39.347 -35.339 19.312 0 0 0 
40.12 -35.359 18.796 0 0 0 
40.897 -35.379 18.263 0 0 0 
41.699 -35.428 17.191 0 0 0 
42.483 -35.45 16.637 0 0 0 
43.273 -35.475 16.004 0 0 0 
44.083 -35.525 14.947 0 0 0 
44.884 -35.565 14.059 0 0 0 
45.691 -35.605 13.122 0 0 0 
46.519 -35.66 11.792 0 0 0 
47.351 -35.712 10.465 0 0 0 
48.163 -35.733 9.15 0 0 0 
48.986 -35.752 7.074 0 0 0 
49.793 -35.768 5.24 0 0 0 
50.594 -35.782 3.621 0 0 0 
51.426 -35.816 0.76 0 0 0 
52.278 -35.936 -2.814 0 0 0 
53.142 -36.096 -6.668 0 0 0 
53.999 -36.243 -10.08 0 0 0 
54.959 -36.302 -13.734 0 0 0 
-86.282 -35.62 -9.353 0 0 0 
-85.164 -35.502 -5.451 0 0 0 
-84.15 -35.431 -2.644 0 0 0 
-83.117 -35.361 0.672 0 0 0 
-82.225 -35.325 2.728 0 0 0 
-81.353 -35.29 4.405 0 0 0 
-80.486 -35.252 5.956 0 0 0 
-79.643 -35.22 7.096 0 0 0 
-78.756 -35.163 8.899 0 0 0 
-77.904 -35.117 10.171 0 0 0 
-77.1 -35.091 11.205 0 0 0 
-76.286 -35.055 12.665 0 0 0 
-75.493 -35.031 13.6 0 0 0 
-74.702 -35.005 14.524 0 0 0 
-73.919 -34.983 15.232 0 0 0 
-73.135 -34.958 16.035 0 0 0 
-72.355 -34.935 16.732 0 0 0 
-71.577 -34.917 17.311 0 0 0 
-70.788 -34.888 18.168 0 0 0 
-70.014 -34.871 18.569 0 0 0 
-69.224 -34.838 19.399 0 0 0 
-68.45 -34.82 19.756 0 0 0 
-67.666 -34.794 20.362 0 0 0 
-66.886 -34.771 20.94 0 0 0 
-66.113 -34.75 21.372 0 0 0 
-65.334 -34.725 21.994 0 0 0 
-64.569 -34.712 22.184 0 0 0 
-63.795 -34.692 22.665 0 0 0 
-63.027 -34.678 22.932 0 0 0 
-62.254 -34.662 23.339 0 0 0 
-61.481 -34.649 23.809 0 0 0 
-60.715 -34.642 24.14 0 0 0 
-59.949 -34.635 24.475 0 0 0 
-59.186 -34.629 24.752 0 0 0 
-58.427 -34.626 24.901 0 0 0 
-57.666 -34.622 25.132 0 0 0 
-56.902 -34.616 25.469 0 0 0 
-56.137 -34.615 25.649 0 0 0 
-55.373 -34.615 25.829 0 0 0 
-54.608 -34.613 26.043 0 0 0 
-53.843 -34.612 26.24 0 0 0 
-53.081 -34.612 26.383 0 0 0 
-52.317 -34.611 26.568 0 0 0 
-51.552 -34.608 26.895 0 0 0 
-50.802 -34.611 26.975 0 0 0 
-50.047 -34.61 27.251 0 0 0 
-49.293 -34.61 27.468 0 0 0 
-48.543 -34.612 27.574 0 0 0 
-47.793 -34.614 27.688 0 0 0 
-47.044 -34.616 27.804 0 0 0 
-46.288 -34.612 27.988 0 0 0 
-45.531 -34.606 28.12 0 0 0 
-44.775 -34.601 28.198 0 0 0 
-44.017 -34.594 28.378 0 0 0 
-43.256 -34.582 28.703 0 0 0 
-42.499 -34.575 28.817 0 0 0 
-41.74 -34.566 29.016 0 0 0 
-40.975 -34.541 29.242 0 0 0 
-40.21 -34.517 29.422 0 0 0 
-39.443 -34.491 29.656 0 0 0 
-38.675 -34.465 29.878 0 0 0 
-37.904 -34.435 30.176 0 0 0 
-37.136 -34.407 30.418 0 0 0 
-36.369 -34.381 30.709 0 0 0 
-35.604 -34.36 31.014 0 0 0 
-34.836 -34.334 31.483 0 0 0 
-34.073 -34.315 31.775 0 0 0 
-33.305 -34.286 32.426 0 0 0 
-32.541 -34.264 32.884 0 0 0 
-31.78 -34.246 33.216 0 0 0 
-31.021 -34.218 33.935 0 0 0 
-30.267 -34.193 34.56 0 0 0 
-29.515 -34.164 35.249 0 0 0 
-28.765 -34.137 35.853 0 0 0 
-28.015 -34.1 36.763 0 0 0 
-27.268 -34.067 37.462 0 0 0 
-26.522 -34.019 38.603 0 0 0 
-25.783 -33.994 39.223 0 0 0 
-25.022 -33.952 40.805 0 0 0 
-24.254 -33.932 41.875 0 0 0 
-23.475 -33.908 43.275 0 0 0 
-22.69 -33.883 44.806 0 0 0 
-21.9 -33.858 46.395 0 0 0 
-21.118 -33.837 47.691 0 0 0 
-20.328 -33.815 49.164 0 0 0 
-19.552 -33.793 50.321 0 0 0 
-18.792 -33.754 51.455 0 0 0 
-18.04 -33.733 52.11 0 0 0 
-17.291 -33.717 52.63 0 0 0 
-16.542 -33.7 53.26 0 0 0 
-15.803 -33.685 53.575 0 0 0 
-15.067 -33.666 53.946 0 0 0 
-14.332 -33.65 54.228 0 0 0 
-13.596 -33.636 54.472 0 0 0 
-12.864 -33.627 54.534 0 0 0 
-12.131 -33.619 54.545 0 0 0 
-11.405 -33.621 54.195 0 0 0 
-10.683 -33.637 53.818 0 0 0 
-9.963 -33.654 53.379 0 0 0 
-9.242 -33.671 52.97 0 0 0 
-8.522 -33.691 52.47 0 0 0 
-7.814 -33.728 51.327 0 0 0 
-7.101 -33.757 50.492 0 0 0 
-6.405 -33.784 48.904 0 0 0 
-5.717 -33.802 47.056 0 0 0 
-5.026 -33.837 45.152 0 0 0 
-4.325 -33.878 43.636 0 0 0 
-3.637 -33.957 41.181 0 0 0 
-2.916 -34.025 39.529 0 0 0 
-2.163 -34.067 38.433 0 0 0 
-1.408 -34.092 37.545 0 0 0 
-0.644 -34.115 36.475 0 0 0 
0.114 -34.132 35.785 0 0 0 
0.869 -34.147 35.261 0 0 0 
1.637 -34.171 34.328 0 0 0 
2.395 -34.186 33.861 0 0 0 
3.153 -34.201 33.397 0 0 0 
3.903 -34.219 32.851 0 0 0 
4.648 -34.234 32.504 0 0 0 
5.386 -34.245 32.375 0 0 0 
6.125 -34.256 32.231 0 0 0 
6.869 -34.27 31.96 0 0 0 
7.608 -34.281 31.843 0 0 0 
8.354 -34.293 31.73 0 0 0 
9.114 -34.307 31.621 0 0 0 
9.875 -34.321 31.535 0 0 0 
10.633 -34.333 31.501 0 0 0 
11.398 -34.351 31.322 0 0 0 
12.16 -34.366 31.235 0 0 0 
12.922 -34.382 31.143 0 0 0 
13.682 -34.392 31.018 0 0 0 
14.447 -34.405 30.749 0 0 0 
15.215 -34.419 30.447 0 0 0 
15.979 -34.431 30.217 0 0 0 
16.743 -34.444 29.894 0 0 0 
17.498 -34.452 29.536 0 0 0 
18.252 -34.457 29.269 0 0 0 
19.019 -34.453 28.943 0 0 0 
19.785 -34.447 28.632 0 0 0 
20.552 -34.44 28.451 0 0 0 
21.319 -34.435 28.154 0 0 0 
22.087 -34.429 27.885 0 0 0 
22.855 -34.423 27.653 0 0 0 
23.617 -34.417 27.512 0 0 0 
24.371 -34.419 27.228 0 0 0 
25.125 -34.42 27.014 0 0 0 
25.879 -34.421 26.832 0 0 0 
26.635 -34.425 26.492 0 0 0 
27.391 -34.429 26.241 0 0 0 
28.146 -34.431 26.041 0 0 0 
28.906 -34.445 25.465 0 0 0 
29.662 -34.452 25.127 0 0 0 
30.418 -34.457 24.9 0 0 0 
31.173 -34.461 24.679 0 0 0 
31.934 -34.473 24.098 0 0 0 
32.691 -34.478 23.815 0 0 0 
33.451 -34.486 23.415 0 0 0 
34.186 -34.5 22.906 0 0 0 
34.918 -34.509 22.575 0 0 0 
35.65 -34.518 22.191 0 0 0 
36.385 -34.53 21.617 0 0 0 
37.12 -34.543 20.966 0 0 0 
37.849 -34.547 20.723 0 0 0 
38.592 -34.555 20.114 0 0 0 
39.368 -34.584 19.332 0 0 0 
40.14 -34.601 18.865 0 0 0 
40.917 -34.624 18.295 0 0 0 
41.715 -34.669 17.26 0 0 0 
42.501 -34.693 16.659 0 0 0 
43.287 -34.714 16.104 0 0 0 
44.094 -34.763 15.054 0 0 0 
44.901 -34.81 14.016 0 0 0 
45.699 -34.842 13.222 0 0 0 
46.527 -34.898 11.861 0 0 0 
47.353 -34.945 10.613 0 0 0 
48.171 -34.971 9.179 0 0 0 
48.99 -34.986 7.248 0 0 0 
49.8 -35.001 5.364 0 0 0 
50.601 -35.013 3.838 0 0 0 
51.44 -35.046 0.947 0 0 0 
52.294 -35.165 -2.643 0 0 0 
53.153 -35.323 -6.37 0 0 0 
54.007 -35.476 -9.773 0 0 0 
54.954 -35.538 -13.631 0 0 0 
-86.192 -34.803 -8.153 0 0 0 
-85.169 -34.726 -5.395 0 0 0 
-84.171 -34.666 -2.828 0 0 0 
-83.117 -34.596 0.738 0 0 0 
-82.225 -34.561 2.773 0 0 0 
-81.332 -34.52 4.763 0 0 0 
-80.47 -34.485 6.235 0 0 0 
-79.634 -34.458 7.253 0 0 0 
-78.742 -34.4 9.114 0 0 0 
-77.898 -34.359 10.366 0 0 0 
-77.1 -34.336 11.205 0 0 0 
-76.284 -34.297 12.736 0 0 0 
-75.491 -34.271 13.661 0 0 0 
-74.702 -34.246 14.513 0 0 0 
-73.916 -34.222 15.302 0 0 0 
-73.133 -34.197 16.074 0 0 0 
-72.355 -34.175 16.707 0 0 0 
-71.576 -34.155 17.35 0 0 0 
-70.788 -34.125 18.21 0 0 0 
-70.017 -34.111 18.544 0 0 0 
-69.23 -34.079 19.325 0 0 0 
-68.452 -34.055 19.824 0 0 0 
-67.671 -34.032 20.345 0 0 0 
-66.891 -34.009 20.906 0 0 0 
-66.117 -33.988 21.365 0 0 0 
-65.339 -33.964 21.919 0 0 0 
-64.574 -33.951 22.099 0 0 0 
-63.798 -33.932 22.581 0 0 0 
-63.03 -33.918 22.852 0 0 0 
-62.255 -33.901 23.282 0 0 0 
-61.486 -33.891 23.628 0 0 0 
-60.714 -33.88 24.096 0 0 0 
-59.948 -33.874 24.402 0 0 0 
-59.186 -33.869 24.63 0 0 0 
-58.424 -33.865 24.857 0 0 0 
-57.664 -33.861 25.056 0 0 0 
-56.899 -33.856 25.393 0 0 0 
-56.137 -33.856 25.525 0 0 0 
-55.374 -33.856 25.696 0 0 0 
-54.611 -33.855 25.874 0 0 0 
-53.849 -33.855 26.024 0 0 0 
-53.086 -33.854 26.214 0 0 0 
-52.323 -33.854 26.408 0 0 0 
-51.561 -33.852 26.664 0 0 0 
-50.809 -33.854 26.784 0 0 0 
-50.056 -33.855 26.975 0 0 0 
-49.301 -33.854 27.22 0 0 0 
-48.549 -33.856 27.38 0 0 0 
-47.799 -33.858 27.492 0 0 0 
-47.049 -33.86 27.594 0 0 0 
-46.294 -33.857 27.759 0 0 0 
-45.535 -33.85 27.959 0 0 0 
-44.779 -33.846 28.013 0 0 0 
-44.022 -33.839 28.15 0 0 0 
-43.263 -33.831 28.362 0 0 0 
-42.502 -33.82 28.651 0 0 0 
-41.746 -33.813 28.758 0 0 0 
-40.982 -33.792 28.936 0 0 0 
-40.215 -33.767 29.219 0 0 0 
-39.449 -33.743 29.436 0 0 0 
-38.681 -33.719 29.658 0 0 0 
-37.907 -33.687 30.066 0 0 0 
-37.141 -33.662 30.256 0 0 0 
-36.373 -33.636 30.55 0 0 0 
-35.608 -33.615 30.845 0 0 0 
-34.84 -33.59 31.288 0 0 0 
-34.074 -33.567 31.697 0 0 0 
-33.308 -33.542 32.225 0 0 0 
-32.541 -33.514 32.862 0 0 0 
-31.778 -33.491 33.357 0 0 0 
-31.021 -33.468 33.908 0 0 0 
-30.265 -33.439 34.643 0 0 0 
-29.512 -33.408 35.405 0 0 0 
-28.762 -33.381 35.991 0 0 0 
-28.011 -33.343 36.899 0 0 0 
-27.264 -33.31 37.629 0 0 0 
-26.518 -33.263 38.723 0 0 0 
-25.779 -33.236 39.341 0 0 0 
-25.018 -33.197 40.803 0 0 0 
-24.246 -33.177 42.018 0 0 0 
-23.47 -33.158 43.307 0 0 0 
-22.69 -33.139 44.661 0 0 0 
-21.908 -33.122 46.041 0 0 0 
-21.122 -33.105 47.447 0 0 0 
-20.335 -33.09 48.85 0 0 0 
-19.562 -33.082 49.752 0 0 0 
-18.795 -33.044 51.052 0 0 0 
-18.043 -33.023 51.702 0 0 0 
-17.295 -33.009 52.17 0 0 0 
-16.547 -32.995 52.655 0 0 0 
-15.807 -32.976 53.114 0 0 0 
-15.073 -32.959 53.389 0 0 0 
-14.337 -32.941 53.721 0 0 0 
-13.604 -32.93 53.851 0 0 0 
-12.871 -32.92 53.936 0 0 0 
-12.139 -32.911 53.959 0 0 0 
-11.412 -32.91 53.7 0 0 0 
-10.689 -32.92 53.394 0 0 0 
-9.969 -32.935 52.912 0 0 0 
-9.249 -32.949 52.443 0 0 0 
-8.536 -32.973 51.596 0 0 0 
-7.825 -32.999 50.689 0 0 0 
-7.114 -33.021 49.834 0 0 0 
-6.428 -33.044 48.017 0 0 0 
-5.734 -33.064 46.554 0 0 0 
-5.046 -33.105 44.618 0 0 0 
-4.342 -33.145 43.361 0 0 0 
-3.655 -33.226 41.039 0 0 0 
-2.932 -33.293 39.459 0 0 0 
-2.181 -33.331 38.461 0 0 0 
-1.428 -33.352 37.689 0 0 0 
-0.663 -33.374 36.554 0 0 0 
0.095 -33.39 35.857 0 0 0 
0.849 -33.402 35.384 0 0 0 
1.616 -33.423 34.468 0 0 0 
2.378 -33.44 33.829 0 0 0 
3.135 -33.453 33.434 0 0 0 
3.891 -33.472 32.774 0 0 0 
4.64 -33.487 32.396 0 0 0 
5.382 -33.498 32.27 0 0 0 
6.126 -33.509 32.103 0 0 0 
6.873 -33.523 31.87 0 0 0 
7.616 -33.535 31.733 0 0 0 
8.365 -33.548 31.61 0 0 0 
9.127 -33.562 31.502 0 0 0 
9.89 -33.578 31.352 0 0 0 
10.653 -33.594 31.215 0 0 0 
11.413 -33.609 31.159 0 0 0 
12.177 -33.626 31.02 0 0 0 
12.94 -33.643 30.922 0 0 0 
13.708 -33.66 30.638 0 0 0 
14.473 -33.672 30.402 0 0 0 
15.24 -33.685 30.118 0 0 0 
15.999 -33.694 29.872 0 0 0 
16.754 -33.7 29.579 0 0 0 
17.508 -33.707 29.236 0 0 0 
18.262 -33.712 29.012 0 0 0 
19.027 -33.708 28.628 0 0 0 
19.791 -33.704 28.322 0 0 0 
20.555 -33.697 28.185 0 0 0 
21.32 -33.691 27.949 0 0 0 
22.085 -33.686 27.672 0 0 0 
22.851 -33.681 27.426 0 0 0 
23.612 -33.677 27.277 0 0 0 
24.366 -33.678 27.016 0 0 0 
25.12 -33.679 26.843 0 0 0 
25.873 -33.679 26.696 0 0 0 
26.629 -33.683 26.359 0 0 0 
27.384 -33.684 26.203 0 0 0 
28.142 -33.693 25.766 0 0 0 
28.899 -33.701 25.391 0 0 0 
29.655 -33.707 25.102 0 0 0 
30.41 -33.711 24.885 0 0 0 
31.167 -33.717 24.588 0 0 0 
31.927 -33.728 24.078 0 0 0 
32.684 -33.732 23.815 0 0 0 
33.444 -33.741 23.364 0 0 0 
34.183 -33.752 22.912 0 0 0 
34.919 -33.761 22.567 0 0 0 
