ply
format ascii 1.0
comment VCGLIB generated
element vertex 1652
property float x
property float y
property float z
property float nx
property float ny
property float nz
element face 0
property list uchar int vertex_indices
end_header
76.991 -20.14 31.369 0 0 0 
77.758 -20.147 31.054 0 0 0 
78.543 -20.167 30.346 0 0 0 
79.308 -20.176 29.9 0 0 0 
80.07 -20.187 29.359 0 0 0 
80.84 -20.204 28.602 0 0 0 
81.609 -20.217 27.925 0 0 0 
82.372 -20.225 27.431 0 0 0 
83.153 -20.245 26.506 0 0 0 
83.93 -20.256 25.765 0 0 0 
84.705 -20.261 25.097 0 0 0 
85.492 -20.271 24.08 0 0 0 
86.27 -20.272 23.31 0 0 0 
87.055 -20.273 22.352 0 0 0 
87.839 -20.27 21.388 0 0 0 
88.62 -20.263 20.495 0 0 0 
89.441 -20.297 19.444 0 0 0 
90.296 -20.346 18.231 0 0 0 
91.147 -20.39 17.053 0 0 0 
92.023 -20.44 15.555 0 0 0 
92.889 -20.483 14.16 0 0 0 
93.765 -20.525 12.633 0 0 0 
94.685 -20.578 10.545 0 0 0 
95.552 -20.591 8.529 0 0 0 
96.395 -20.593 6.643 0 0 0 
97.311 -20.601 3.174 0 0 0 
98.261 -20.629 -0.664 0 0 0 
99.568 -20.798 -8.064 0 0 0 
100.513 -20.845 -10.288 0 0 0 
101.584 -21.095 -15.791 0 0 0 
-60.438 -20.615 -12.933 0 0 0 
-59.582 -20.569 -10.911 0 0 0 
-58.633 -20.464 -6.331 0 0 0 
-57.685 -20.342 -1.281 0 0 0 
-56.827 -20.276 1.918 0 0 0 
-55.95 -20.193 5.996 0 0 0 
-55.126 -20.139 8.538 0 0 0 
-54.291 -20.091 10.85 0 0 0 
-53.453 -20.063 12.531 0 0 0 
-52.638 -20.044 13.724 0 0 0 
-51.79 -20.017 15.559 0 0 0 
-50.97 -19.998 16.881 0 0 0 
-50.132 -19.979 18.393 0 0 0 
-49.321 -19.968 19.377 0 0 0 
-48.507 -19.941 20.741 0 0 0 
-47.734 -19.923 21.422 0 0 0 
-46.941 -19.883 22.772 0 0 0 
-46.179 -19.864 23.27 0 0 0 
-45.414 -19.842 23.883 0 0 0 
-44.631 -19.807 25.036 0 0 0 
-43.864 -19.788 25.694 0 0 0 
-43.094 -19.768 26.437 0 0 0 
-42.321 -19.748 27.278 0 0 0 
-41.543 -19.725 28.181 0 0 0 
-40.756 -19.696 29.088 0 0 0 
-39.985 -19.677 29.471 0 0 0 
-39.201 -19.646 30.25 0 0 0 
-38.432 -19.627 30.596 0 0 0 
-37.658 -19.602 31.179 0 0 0 
-36.89 -19.583 31.59 0 0 0 
-36.131 -19.577 31.932 0 0 0 
-35.372 -19.572 32.456 0 0 0 
-34.614 -19.567 32.931 0 0 0 
-33.861 -19.568 33.215 0 0 0 
-33.102 -19.561 33.72 0 0 0 
-32.345 -19.557 34.147 0 0 0 
-31.594 -19.559 34.327 0 0 0 
-30.848 -19.553 34.543 0 0 0 
-30.099 -19.544 34.866 0 0 0 
-29.351 -19.536 35.152 0 0 0 
-28.607 -19.533 35.302 0 0 0 
-27.857 -19.526 35.604 0 0 0 
-27.114 -19.525 35.691 0 0 0 
-26.362 -19.514 36.057 0 0 0 
-25.616 -19.5 36.255 0 0 0 
-24.87 -19.486 36.436 0 0 0 
-24.123 -19.47 36.681 0 0 0 
-23.375 -19.452 36.951 0 0 0 
-22.632 -19.439 37.071 0 0 0 
-21.889 -19.424 37.237 0 0 0 
-21.147 -19.417 37.338 0 0 0 
-20.405 -19.414 37.472 0 0 0 
-19.659 -19.407 37.735 0 0 0 
-18.916 -19.404 37.878 0 0 0 
-18.168 -19.398 38.181 0 0 0 
-17.425 -19.396 38.332 0 0 0 
-16.681 -19.395 38.453 0 0 0 
-15.928 -19.388 38.684 0 0 0 
-15.176 -19.38 38.925 0 0 0 
-14.425 -19.373 39.118 0 0 0 
-13.665 -19.357 39.736 0 0 0 
-12.916 -19.351 39.918 0 0 0 
-12.167 -19.346 40.098 0 0 0 
-11.425 -19.351 40.175 0 0 0 
-10.691 -19.371 40.27 0 0 0 
-9.954 -19.389 40.536 0 0 0 
-9.217 -19.404 40.806 0 0 0 
-8.48 -19.417 41.125 0 0 0 
-7.744 -19.43 41.338 0 0 0 
-7.009 -19.44 41.607 0 0 0 
-6.264 -19.433 41.903 0 0 0 
-5.517 -19.423 42.057 0 0 0 
-4.77 -19.412 42.242 0 0 0 
-4.023 -19.401 42.42 0 0 0 
-3.276 -19.388 42.662 0 0 0 
-2.531 -19.379 42.784 0 0 0 
-1.786 -19.371 42.838 0 0 0 
-1.041 -19.356 43.127 0 0 0 
-0.297 -19.343 43.375 0 0 0 
0.446 -19.332 43.535 0 0 0 
1.189 -19.322 43.657 0 0 0 
1.953 -19.233 47.25 0 0 0 
2.755 -18.938 56.48 0 0 0 
3.495 -18.923 56.657 0 0 0 
4.237 -18.891 57.312 0 0 0 
4.981 -18.826 58.726 0 0 0 
5.718 -18.757 60.386 0 0 0 
6.446 -18.738 61.21 0 0 0 
7.174 -18.722 61.826 0 0 0 
7.9 -18.706 62.511 0 0 0 
8.621 -18.687 63.523 0 0 0 
9.345 -18.669 64.227 0 0 0 
10.072 -18.654 64.677 0 0 0 
10.792 -18.64 65.93 0 0 0 
11.513 -18.629 66.983 0 0 0 
12.241 -18.62 67.506 0 0 0 
12.964 -18.615 68.451 0 0 0 
13.693 -18.611 69.153 0 0 0 
14.42 -18.602 70.164 0 0 0 
15.153 -18.585 70.705 0 0 0 
15.885 -18.571 71.115 0 0 0 
16.613 -18.552 71.867 0 0 0 
17.338 -18.533 72.647 0 0 0 
18.066 -18.522 72.993 0 0 0 
18.79 -18.511 73.547 0 0 0 
19.51 -18.5 74.202 0 0 0 
20.236 -18.494 74.426 0 0 0 
20.963 -18.49 74.5 0 0 0 
21.689 -18.485 74.601 0 0 0 
22.414 -18.481 74.746 0 0 0 
23.141 -18.468 74.942 0 0 0 
23.869 -18.454 75.061 0 0 0 
24.596 -18.439 75.213 0 0 0 
25.326 -18.425 75.264 0 0 0 
26.057 -18.412 75.215 0 0 0 
26.795 -18.403 74.939 0 0 0 
27.535 -18.395 74.604 0 0 0 
28.27 -18.394 74.407 0 0 0 
29.008 -18.395 74.096 0 0 0 
29.75 -18.399 73.637 0 0 0 
30.484 -18.399 73.483 0 0 0 
31.228 -18.404 73.009 0 0 0 
31.982 -18.417 72.16 0 0 0 
32.735 -18.433 71.348 0 0 0 
33.482 -18.454 70.594 0 0 0 
34.237 -18.493 69.363 0 0 0 
34.988 -18.53 68.256 0 0 0 
35.737 -18.556 67.382 0 0 0 
36.499 -18.588 66.039 0 0 0 
37.261 -18.61 64.866 0 0 0 
38.013 -18.623 63.989 0 0 0 
38.766 -18.637 63.025 0 0 0 
39.523 -18.651 61.866 0 0 0 
40.269 -18.655 61.121 0 0 0 
41.01 -18.657 60.493 0 0 0 
41.749 -18.659 59.886 0 0 0 
42.488 -18.691 58.781 0 0 0 
43.235 -18.738 57.463 0 0 0 
43.976 -18.757 56.888 0 0 0 
44.937 -19.124 46.32 0 0 0 
45.77 -19.226 42.926 0 0 0 
46.531 -19.238 42.399 0 0 0 
47.29 -19.247 41.981 0 0 0 
48.058 -19.263 41.252 0 0 0 
48.818 -19.26 41.009 0 0 0 
49.576 -19.253 40.86 0 0 0 
50.336 -19.249 40.632 0 0 0 
51.096 -19.244 40.405 0 0 0 
51.854 -19.235 40.293 0 0 0 
52.613 -19.227 40.14 0 0 0 
53.361 -19.216 40.047 0 0 0 
54.105 -19.205 39.933 0 0 0 
54.859 -19.204 39.585 0 0 0 
55.614 -19.204 39.225 0 0 0 
56.368 -19.203 38.912 0 0 0 
57.122 -19.2 38.636 0 0 0 
57.873 -19.194 38.429 0 0 0 
58.635 -19.2 38.136 0 0 0 
59.392 -19.202 37.929 0 0 0 
60.157 -19.209 37.576 0 0 0 
60.919 -19.215 37.276 0 0 0 
61.682 -19.22 36.984 0 0 0 
62.436 -19.219 36.858 0 0 0 
63.196 -19.224 36.654 0 0 0 
63.962 -19.242 36.326 0 0 0 
64.723 -19.254 36.124 0 0 0 
65.482 -19.264 35.976 0 0 0 
66.249 -19.279 35.672 0 0 0 
67.01 -19.29 35.476 0 0 0 
67.769 -19.298 35.338 0 0 0 
68.53 -19.304 35.151 0 0 0 
69.297 -19.31 34.873 0 0 0 
70.063 -19.316 34.595 0 0 0 
70.825 -19.32 34.393 0 0 0 
71.588 -19.324 34.169 0 0 0 
72.356 -19.331 33.843 0 0 0 
73.126 -19.339 33.493 0 0 0 
73.896 -19.348 33.079 0 0 0 
74.666 -19.358 32.681 0 0 0 
75.436 -19.367 32.305 0 0 0 
76.21 -19.379 31.828 0 0 0 
76.99 -19.394 31.269 0 0 0 
77.759 -19.403 30.913 0 0 0 
78.539 -19.419 30.304 0 0 0 
79.305 -19.43 29.825 0 0 0 
80.066 -19.439 29.354 0 0 0 
80.837 -19.455 28.604 0 0 0 
81.605 -19.468 27.957 0 0 0 
82.368 -19.475 27.482 0 0 0 
83.149 -19.494 26.533 0 0 0 
83.921 -19.501 25.915 0 0 0 
84.7 -19.508 25.111 0 0 0 
85.485 -19.516 24.13 0 0 0 
86.262 -19.516 23.379 0 0 0 
87.047 -19.517 22.367 0 0 0 
87.826 -19.511 21.514 0 0 0 
88.61 -19.504 20.525 0 0 0 
89.422 -19.534 19.554 0 0 0 
90.272 -19.578 18.427 0 0 0 
91.131 -19.622 17.177 0 0 0 
92.012 -19.672 15.631 0 0 0 
92.878 -19.711 14.267 0 0 0 
93.743 -19.748 12.887 0 0 0 
94.671 -19.8 10.73 0 0 0 
95.541 -19.816 8.71 0 0 0 
96.379 -19.815 6.841 0 0 0 
97.282 -19.821 3.55 0 0 0 
98.185 -19.83 0.306 0 0 0 
99.517 -20.016 -7.433 0 0 0 
100.495 -20.071 -9.999 0 0 0 
101.523 -20.286 -14.707 0 0 0 
-60.464 -19.867 -13.675 0 0 0 
-59.557 -19.79 -10.424 0 0 0 
-58.58 -19.672 -5.043 0 0 0 
-57.65 -19.567 -0.385 0 0 0 
-56.809 -19.503 2.654 0 0 0 
-55.962 -19.429 6.067 0 0 0 
-55.151 -19.379 8.338 0 0 0 
-54.307 -19.326 10.949 0 0 0 
-53.463 -19.3 12.685 0 0 0 
-52.648 -19.283 13.859 0 0 0 
-51.801 -19.26 15.606 0 0 0 
-50.978 -19.245 16.916 0 0 0 
-50.134 -19.227 18.463 0 0 0 
-49.322 -19.219 19.435 0 0 0 
-48.509 -19.193 20.75 0 0 0 
-47.732 -19.17 21.543 0 0 0 
-46.94 -19.129 22.853 0 0 0 
-46.176 -19.108 23.405 0 0 0 
-45.409 -19.085 24.043 0 0 0 
-44.627 -19.05 25.142 0 0 0 
-43.859 -19.029 25.833 0 0 0 
-43.091 -19.011 26.498 0 0 0 
-42.315 -18.987 27.422 0 0 0 
-41.536 -18.964 28.344 0 0 0 
-40.758 -18.942 29.02 0 0 0 
-39.984 -18.922 29.562 0 0 0 
-39.205 -18.897 30.233 0 0 0 
-38.439 -18.882 30.554 0 0 0 
-37.669 -18.862 31.072 0 0 0 
-36.899 -18.842 31.605 0 0 0 
-36.142 -18.838 31.908 0 0 0 
-35.383 -18.834 32.392 0 0 0 
-34.624 -18.828 32.885 0 0 0 
-33.868 -18.826 33.274 0 0 0 
-33.113 -18.824 33.618 0 0 0 
-32.357 -18.822 33.963 0 0 0 
-31.601 -18.818 34.328 0 0 0 
-30.856 -18.813 34.51 0 0 0 
-30.111 -18.808 34.696 0 0 0 
-29.361 -18.799 35.038 0 0 0 
-28.615 -18.794 35.231 0 0 0 
-27.867 -18.789 35.469 0 0 0 
-27.124 -18.788 35.55 0 0 0 
-26.372 -18.776 35.943 0 0 0 
-25.624 -18.763 36.176 0 0 0 
-24.879 -18.752 36.308 0 0 0 
-24.135 -18.74 36.447 0 0 0 
-23.387 -18.725 36.704 0 0 0 
-22.642 -18.712 36.907 0 0 0 
-21.9 -18.701 36.982 0 0 0 
-21.157 -18.694 37.127 0 0 0 
-20.411 -18.687 37.404 0 0 0 
-19.668 -18.684 37.537 0 0 0 
-18.925 -18.682 37.666 0 0 0 
-18.18 -18.678 37.854 0 0 0 
-17.431 -18.673 38.157 0 0 0 
-16.688 -18.673 38.276 0 0 0 
-15.935 -18.666 38.482 0 0 0 
-15.18 -18.658 38.753 0 0 0 
-14.43 -18.653 38.887 0 0 0 
-13.675 -18.644 39.23 0 0 0 
-12.922 -18.635 39.538 0 0 0 
-12.169 -18.627 39.857 0 0 0 
-11.425 -18.63 39.929 0 0 0 
-10.688 -18.645 40.061 0 0 0 
-9.949 -18.659 40.258 0 0 0 
-9.21 -18.671 40.559 0 0 0 
-8.47 -18.681 40.876 0 0 0 
-7.732 -18.69 41.134 0 0 0 
-6.994 -18.696 41.444 0 0 0 
-6.25 -18.691 41.665 0 0 0 
-5.501 -18.678 41.922 0 0 0 
-4.754 -18.666 42.152 0 0 0 
-4.007 -18.654 42.402 0 0 0 
-3.26 -18.643 42.615 0 0 0 
-2.514 -18.633 42.796 0 0 0 
-1.769 -18.623 42.94 0 0 0 
-1.024 -18.609 43.224 0 0 0 
-0.28 -18.595 43.537 0 0 0 
0.464 -18.579 43.921 0 0 0 
1.207 -18.569 44.104 0 0 0 
1.955 -18.535 45.439 0 0 0 
2.727 -18.377 51.686 0 0 0 
3.489 -18.21 56.019 0 0 0 
4.231 -18.177 56.686 0 0 0 
4.974 -18.092 58.517 0 0 0 
5.709 -18.011 60.465 0 0 0 
6.436 -17.993 61.224 0 0 0 
7.165 -17.977 61.748 0 0 0 
7.891 -17.962 62.468 0 0 0 
8.613 -17.944 63.442 0 0 0 
9.338 -17.927 64.154 0 0 0 
10.065 -17.913 64.712 0 0 0 
10.785 -17.902 66.005 0 0 0 
11.508 -17.894 67.05 0 0 0 
12.234 -17.888 67.802 0 0 0 
12.96 -17.884 68.563 0 0 0 
13.688 -17.881 69.382 0 0 0 
14.416 -17.869 70.5 0 0 0 
15.148 -17.854 71.007 0 0 0 
15.879 -17.84 71.449 0 0 0 
16.606 -17.823 72.128 0 0 0 
17.331 -17.807 72.862 0 0 0 
18.057 -17.795 73.232 0 0 0 
18.781 -17.784 73.773 0 0 0 
19.499 -17.769 74.577 0 0 0 
20.225 -17.763 74.736 0 0 0 
20.955 -17.759 74.642 0 0 0 
21.683 -17.753 74.683 0 0 0 
22.408 -17.746 74.882 0 0 0 
23.135 -17.734 75.012 0 0 0 
23.862 -17.719 75.169 0 0 0 
24.59 -17.704 75.297 0 0 0 
25.319 -17.69 75.354 0 0 0 
26.05 -17.677 75.306 0 0 0 
26.786 -17.667 75.111 0 0 0 
27.524 -17.657 74.868 0 0 0 
28.263 -17.658 74.526 0 0 0 
29 -17.658 74.271 0 0 0 
29.736 -17.658 74.018 0 0 0 
30.478 -17.661 73.614 0 0 0 
31.217 -17.663 73.316 0 0 0 
31.976 -17.677 72.359 0 0 0 
32.731 -17.693 71.497 0 0 0 
33.481 -17.716 70.668 0 0 0 
34.235 -17.749 69.566 0 0 0 
34.988 -17.793 68.306 0 0 0 
35.737 -17.822 67.356 0 0 0 
36.497 -17.854 66.075 0 0 0 
37.255 -17.875 64.989 0 0 0 
38.009 -17.89 64.074 0 0 0 
38.765 -17.905 63.012 0 0 0 
39.517 -17.915 62.103 0 0 0 
40.267 -17.921 61.261 0 0 0 
41.009 -17.92 60.696 0 0 0 
41.755 -17.921 59.94 0 0 0 
42.497 -17.96 58.55 0 0 0 
43.24 -18 57.397 0 0 0 
44.007 -18.081 55.055 0 0 0 
45.012 -18.479 43.247 0 0 0 
45.789 -18.51 42.167 0 0 0 
46.543 -18.511 41.992 0 0 0 
47.3 -18.517 41.666 0 0 0 
48.06 -18.524 41.235 0 0 0 
48.818 -18.52 40.997 0 0 0 
49.573 -18.513 40.873 0 0 0 
50.332 -18.509 40.612 0 0 0 
51.091 -18.505 40.352 0 0 0 
51.847 -18.496 40.227 0 0 0 
52.605 -18.489 40.026 0 0 0 
53.354 -18.48 39.901 0 0 0 
54.103 -18.474 39.674 0 0 0 
54.858 -18.474 39.308 0 0 0 
55.614 -18.474 38.946 0 0 0 
56.367 -18.47 38.688 0 0 0 
57.125 -18.471 38.332 0 0 0 
57.88 -18.468 38.055 0 0 0 
58.636 -18.468 37.891 0 0 0 
59.4 -18.476 37.535 0 0 0 
60.163 -18.481 37.247 0 0 0 
60.922 -18.484 37.02 0 0 0 
61.682 -18.487 36.776 0 0 0 
62.441 -18.488 36.575 0 0 0 
63.197 -18.49 36.438 0 0 0 
63.963 -18.505 36.139 0 0 0 
64.724 -18.515 35.958 0 0 0 
65.482 -18.523 35.817 0 0 0 
66.25 -18.538 35.508 0 0 0 
67.011 -18.547 35.31 0 0 0 
67.765 -18.551 35.269 0 0 0 
68.53 -18.558 35.024 0 0 0 
69.295 -18.564 34.775 0 0 0 
70.061 -18.57 34.502 0 0 0 
70.822 -18.573 34.312 0 0 0 
71.589 -18.579 34.011 0 0 0 
72.359 -18.588 33.653 0 0 0 
73.121 -18.59 33.456 0 0 0 
73.897 -18.604 32.94 0 0 0 
74.661 -18.609 32.653 0 0 0 
75.436 -18.622 32.174 0 0 0 
76.208 -18.632 31.751 0 0 0 
76.985 -18.646 31.237 0 0 0 
77.755 -18.655 30.865 0 0 0 
78.532 -18.67 30.319 0 0 0 
79.301 -18.682 29.817 0 0 0 
80.062 -18.691 29.354 0 0 0 
80.832 -18.706 28.652 0 0 0 
81.603 -18.72 27.915 0 0 0 
82.367 -18.727 27.444 0 0 0 
83.143 -18.741 26.609 0 0 0 
83.916 -18.748 25.968 0 0 0 
84.695 -18.755 25.132 0 0 0 
85.475 -18.76 24.266 0 0 0 
86.254 -18.76 23.427 0 0 0 
87.038 -18.76 22.433 0 0 0 
87.814 -18.752 21.642 0 0 0 
88.598 -18.745 20.594 0 0 0 
89.412 -18.773 19.573 0 0 0 
90.256 -18.813 18.529 0 0 0 
91.117 -18.856 17.257 0 0 0 
91.999 -18.903 15.733 0 0 0 
92.868 -18.941 14.35 0 0 0 
93.721 -18.971 13.138 0 0 0 
94.664 -19.024 10.82 0 0 0 
95.532 -19.04 8.88 0 0 0 
96.379 -19.039 6.703 0 0 0 
97.264 -19.041 3.687 0 0 0 
98.151 -19.046 0.754 0 0 0 
99.438 -19.222 -6.461 0 0 0 
100.477 -19.305 -9.805 0 0 0 
101.509 -19.515 -14.485 0 0 0 
-60.494 -19.12 -14.495 0 0 0 
-59.515 -19.003 -9.499 0 0 0 
-58.564 -18.904 -4.715 0 0 0 
-57.631 -18.801 0.162 0 0 0 
-56.796 -18.73 3.314 0 0 0 
-55.976 -18.667 6.068 0 0 0 
-55.171 -18.614 8.321 0 0 0 
-54.34 -18.564 10.76 0 0 0 
-53.486 -18.539 12.62 0 0 0 
-52.656 -18.522 14.023 0 0 0 
-51.828 -18.507 15.405 0 0 0 
-50.981 -18.49 17.036 0 0 0 
-50.139 -18.477 18.496 0 0 0 
-49.328 -18.47 19.401 0 0 0 
-48.512 -18.445 20.725 0 0 0 
-47.729 -18.416 21.691 0 0 0 
-46.939 -18.377 22.899 0 0 0 
-46.174 -18.353 23.492 0 0 0 
-45.403 -18.326 24.253 0 0 0 
-44.623 -18.292 25.271 0 0 0 
-43.853 -18.269 26.005 0 0 0 
-43.086 -18.251 26.639 0 0 0 
-42.313 -18.229 27.455 0 0 0 
-41.532 -18.204 28.423 0 0 0 
-40.759 -18.186 29.013 0 0 0 
-39.984 -18.167 29.62 0 0 0 
-39.211 -18.148 30.204 0 0 0 
-38.446 -18.135 30.555 0 0 0 
-37.678 -18.119 31.033 0 0 0 
-36.91 -18.103 31.537 0 0 0 
-36.153 -18.099 31.868 0 0 0 
-35.393 -18.094 32.357 0 0 0 
-34.635 -18.091 32.802 0 0 0 
-33.88 -18.089 33.152 0 0 0 
-33.123 -18.086 33.535 0 0 0 
-32.371 -18.088 33.739 0 0 0 
-31.61 -18.08 34.259 0 0 0 
-30.865 -18.074 34.454 0 0 0 
-30.122 -18.071 34.561 0 0 0 
-29.373 -18.063 34.871 0 0 0 
-28.624 -18.056 35.14 0 0 0 
-27.876 -18.05 35.382 0 0 0 
-27.133 -18.049 35.467 0 0 0 
-26.388 -18.044 35.623 0 0 0 
-25.64 -18.032 35.857 0 0 0 
-24.893 -18.02 36.051 0 0 0 
-24.146 -18.008 36.301 0 0 0 
-23.399 -17.995 36.526 0 0 0 
-22.652 -17.983 36.758 0 0 0 
-21.911 -17.975 36.811 0 0 0 
-21.169 -17.97 36.906 0 0 0 
-20.423 -17.964 37.14 0 0 0 
-19.676 -17.959 37.386 0 0 0 
-18.933 -17.957 37.509 0 0 0 
-18.19 -17.955 37.644 0 0 0 
-17.444 -17.953 37.823 0 0 0 
-16.701 -17.952 37.931 0 0 0 
-15.949 -17.946 38.091 0 0 0 
-15.194 -17.939 38.341 0 0 0 
-14.435 -17.93 38.731 0 0 0 
-13.684 -17.925 38.888 0 0 0 
-12.932 -17.919 39.108 0 0 0 
-12.177 -17.911 39.436 0 0 0 
-11.429 -17.91 39.619 0 0 0 
-10.686 -17.919 39.835 0 0 0 
-9.943 -17.928 40.107 0 0 0 
-9.201 -17.936 40.407 0 0 0 
-8.461 -17.943 40.638 0 0 0 
-7.721 -17.95 40.872 0 0 0 
-6.979 -17.951 41.277 0 0 0 
-6.234 -17.945 41.505 0 0 0 
-5.487 -17.935 41.696 0 0 0 
-4.739 -17.924 41.935 0 0 0 
-3.99 -17.908 42.368 0 0 0 
-3.243 -17.897 42.611 0 0 0 
-2.497 -17.886 42.813 0 0 0 
-1.752 -17.876 42.984 0 0 0 
-1.008 -17.862 43.304 0 0 0 
-0.264 -17.847 43.716 0 0 0 
0.479 -17.834 43.996 0 0 0 
1.222 -17.823 44.273 0 0 0 
1.97 -17.789 45.79 0 0 0 
2.721 -17.734 48.611 0 0 0 
3.479 -17.572 53.498 0 0 0 
4.226 -17.465 56.024 0 0 0 
4.966 -17.369 58.061 0 0 0 
5.7 -17.267 60.308 0 0 0 
6.428 -17.249 61.022 0 0 0 
7.157 -17.232 61.523 0 0 0 
7.883 -17.217 62.224 0 0 0 
8.607 -17.2 63.163 0 0 0 
9.331 -17.186 64.029 0 0 0 
10.058 -17.172 64.59 0 0 0 
10.779 -17.165 66.037 0 0 0 
11.503 -17.159 67.068 0 0 0 
12.228 -17.156 67.963 0 0 0 
12.956 -17.153 68.666 0 0 0 
13.682 -17.156 69.946 0 0 0 
14.413 -17.139 70.694 0 0 0 
15.143 -17.124 71.255 0 0 0 
15.872 -17.111 71.735 0 0 0 
16.599 -17.096 72.339 0 0 0 
17.322 -17.081 73.044 0 0 0 
18.05 -17.071 73.321 0 0 0 
18.773 -17.058 73.899 0 0 0 
19.491 -17.043 74.65 0 0 0 
20.218 -17.035 74.77 0 0 0 
20.947 -17.028 74.785 0 0 0 
21.674 -17.02 74.883 0 0 0 
22.399 -17.011 75.056 0 0 0 
23.127 -16.999 75.164 0 0 0 
23.854 -16.984 75.316 0 0 0 
24.581 -16.969 75.454 0 0 0 
25.309 -16.954 75.535 0 0 0 
26.041 -16.942 75.451 0 0 0 
26.778 -16.932 75.225 0 0 0 
27.515 -16.921 75.03 0 0 0 
28.252 -16.921 74.761 0 0 0 
28.993 -16.922 74.361 0 0 0 
29.729 -16.922 74.162 0 0 0 
30.467 -16.922 73.875 0 0 0 
31.214 -16.928 73.34 0 0 0 
31.972 -16.94 72.449 0 0 0 
32.73 -16.956 71.548 0 0 0 
33.485 -16.979 70.605 0 0 0 
34.237 -17.012 69.578 0 0 0 
34.992 -17.061 68.19 0 0 0 
35.743 -17.094 67.102 0 0 0 
36.499 -17.124 65.942 0 0 0 
37.259 -17.149 64.763 0 0 0 
38.008 -17.16 64.018 0 0 0 
38.767 -17.177 62.882 0 0 0 
39.519 -17.185 62.014 0 0 0 
40.269 -17.188 61.23 0 0 0 
41.017 -17.188 60.538 0 0 0 
41.765 -17.2 59.515 0 0 0 
42.508 -17.236 58.113 0 0 0 
43.251 -17.281 56.741 0 0 0 
44.143 -17.595 47.526 0 0 0 
45.042 -17.775 42.149 0 0 0 
45.8 -17.782 41.801 0 0 0 
46.552 -17.781 41.694 0 0 0 
47.307 -17.784 41.447 0 0 0 
48.061 -17.783 41.269 0 0 0 
48.819 -17.782 40.974 0 0 0 
49.572 -17.774 40.847 0 0 0 
50.329 -17.77 40.585 0 0 0 
51.087 -17.766 40.28 0 0 0 
51.843 -17.76 40.049 0 0 0 
52.6 -17.754 39.861 0 0 0 
53.352 -17.749 39.617 0 0 0 
54.101 -17.743 39.414 0 0 0 
54.858 -17.743 39.032 0 0 0 
55.611 -17.74 38.768 0 0 0 
56.374 -17.746 38.27 0 0 0 
57.131 -17.744 37.967 0 0 0 
57.878 -17.734 37.875 0 0 0 
58.644 -17.742 37.505 0 0 0 
59.407 -17.748 37.198 0 0 0 
60.162 -17.747 37.062 0 0 0 
60.927 -17.754 36.725 0 0 0 
61.688 -17.757 36.485 0 0 0 
62.441 -17.754 36.387 0 0 0 
63.199 -17.756 36.234 0 0 0 
63.965 -17.769 35.937 0 0 0 
64.725 -17.777 35.774 0 0 0 
65.486 -17.785 35.601 0 0 0 
66.25 -17.796 35.365 0 0 0 
67.012 -17.804 35.17 0 0 0 
67.766 -17.806 35.121 0 0 0 
68.532 -17.814 34.861 0 0 0 
69.296 -17.819 34.621 0 0 0 
70.063 -17.826 34.325 0 0 0 
70.823 -17.828 34.17 0 0 0 
71.595 -17.838 33.764 0 0 0 
72.356 -17.841 33.577 0 0 0 
73.12 -17.845 33.328 0 0 0 
73.893 -17.856 32.882 0 0 0 
74.655 -17.861 32.636 0 0 0 
75.434 -17.876 32.07 0 0 0 
76.206 -17.887 31.649 0 0 0 
76.979 -17.897 31.229 0 0 0 
77.75 -17.907 30.833 0 0 0 
78.531 -17.924 30.234 0 0 0 
79.293 -17.932 29.9 0 0 0 
80.059 -17.945 29.311 0 0 0 
80.827 -17.957 28.7 0 0 0 
81.598 -17.97 27.982 0 0 0 
82.365 -17.979 27.41 0 0 0 
83.14 -17.99 26.636 0 0 0 
83.913 -17.997 25.951 0 0 0 
84.69 -18.002 25.179 0 0 0 
85.467 -18.004 24.374 0 0 0 
86.243 -18.003 23.582 0 0 0 
87.03 -18.003 22.462 0 0 0 
87.802 -17.994 21.754 0 0 0 
88.583 -17.984 20.797 0 0 0 
89.403 -18.013 19.568 0 0 0 
90.243 -18.05 18.582 0 0 0 
91.106 -18.091 17.315 0 0 0 
91.989 -18.135 15.797 0 0 0 
92.865 -18.174 14.335 0 0 0 
93.712 -18.199 13.228 0 0 0 
94.662 -18.25 10.848 0 0 0 
95.525 -18.264 9 0 0 0 
96.368 -18.262 6.797 0 0 0 
97.244 -18.262 3.887 0 0 0 
98.125 -18.264 1.038 0 0 0 
99.378 -18.432 -5.76 0 0 0 
100.437 -18.53 -9.335 0 0 0 
101.484 -18.737 -14.084 0 0 0 
-60.48 -18.347 -14.253 0 0 0 
-59.465 -18.214 -8.336 0 0 0 
-58.539 -18.133 -4.164 0 0 0 
-57.611 -18.031 0.85 0 0 0 
-56.792 -17.961 3.748 0 0 0 
-55.991 -17.906 6.026 0 0 0 
-55.185 -17.845 8.54 0 0 0 
-54.355 -17.798 10.884 0 0 0 
-53.502 -17.778 12.686 0 0 0 
-52.663 -17.762 14.18 0 0 0 
-51.859 -17.753 15.141 0 0 0 
-50.998 -17.738 16.933 0 0 0 
-50.156 -17.728 18.345 0 0 0 
-49.348 -17.723 19.187 0 0 0 
-48.518 -17.7 20.618 0 0 0 
-47.728 -17.663 21.792 0 0 0 
-46.944 -17.629 22.802 0 0 0 
-46.173 -17.6 23.523 0 0 0 
-45.397 -17.567 24.43 0 0 0 
-44.621 -17.536 25.315 0 0 0 
-43.85 -17.512 26.067 0 0 0 
-43.083 -17.494 26.681 0 0 0 
-42.312 -17.473 27.447 0 0 0 
-41.532 -17.447 28.407 0 0 0 
-40.766 -17.436 28.819 0 0 0 
-39.99 -17.416 29.534 0 0 0 
-39.219 -17.402 30.068 0 0 0 
-38.454 -17.39 30.488 0 0 0 
-37.688 -17.377 30.975 0 0 0 
-36.924 -17.366 31.394 0 0 0 
-36.165 -17.361 31.787 0 0 0 
-35.405 -17.357 32.273 0 0 0 
-34.649 -17.355 32.625 0 0 0 
-33.893 -17.353 32.984 0 0 0 
-33.136 -17.35 33.377 0 0 0 
-32.385 -17.353 33.543 0 0 0 
-31.629 -17.351 33.891 0 0 0 
-30.876 -17.337 34.32 0 0 0 
-30.13 -17.332 34.524 0 0 0 
-29.386 -17.328 34.661 0 0 0 
-28.636 -17.319 34.983 0 0 0 
-27.887 -17.313 35.249 0 0 0 
-27.141 -17.309 35.423 0 0 0 
-26.395 -17.304 35.571 0 0 0 
-25.65 -17.295 35.752 0 0 0 
-24.904 -17.285 35.94 0 0 0 
-24.158 -17.275 36.134 0 0 0 
-23.411 -17.265 36.34 0 0 0 
-22.667 -17.257 36.473 0 0 0 
-21.923 -17.249 36.605 0 0 0 
-21.18 -17.243 36.751 0 0 0 
-20.436 -17.24 36.899 0 0 0 
-19.694 -17.238 36.998 0 0 0 
-18.948 -17.234 37.193 0 0 0 
-18.204 -17.232 37.334 0 0 0 
-17.459 -17.23 37.5 0 0 0 
-16.718 -17.23 37.552 0 0 0 
-15.964 -17.224 37.738 0 0 0 
-15.208 -17.218 37.975 0 0 0 
-14.447 -17.209 38.391 0 0 0 
-13.688 -17.202 38.769 0 0 0 
-12.937 -17.197 38.907 0 0 0 
-12.183 -17.191 39.163 0 0 0 
-11.436 -17.19 39.26 0 0 0 
-10.689 -17.195 39.482 0 0 0 
-9.94 -17.198 39.821 0 0 0 
-9.194 -17.203 40.106 0 0 0 
-8.45 -17.205 40.445 0 0 0 
-7.708 -17.208 40.681 0 0 0 
-6.965 -17.208 40.999 0 0 0 
-6.218 -17.2 41.336 0 0 0 
-5.47 -17.188 41.62 0 0 0 
-4.723 -17.178 41.805 0 0 0 
-3.974 -17.162 42.31 0 0 0 
-3.227 -17.151 42.563 0 0 0 
-2.481 -17.141 42.757 0 0 0 
-1.736 -17.131 42.964 0 0 0 
-0.992 -17.116 43.377 0 0 0 
-0.249 -17.104 43.652 0 0 0 
0.494 -17.092 43.942 0 0 0 
1.237 -17.079 44.332 0 0 0 
1.985 -17.039 46.47 0 0 0 
2.73 -17.003 48.564 0 0 0 
3.476 -16.946 50.854 0 0 0 
4.222 -16.789 54.556 0 0 0 
4.96 -16.655 57.416 0 0 0 
5.693 -16.532 59.782 0 0 0 
6.42 -16.503 60.741 0 0 0 
7.149 -16.487 61.165 0 0 0 
7.876 -16.471 61.912 0 0 0 
8.601 -16.456 62.823 0 0 0 
9.326 -16.442 63.673 0 0 0 
10.052 -16.431 64.484 0 0 0 
10.774 -16.427 65.925 0 0 0 
11.499 -16.423 66.936 0 0 0 
12.224 -16.423 67.949 0 0 0 
12.952 -16.422 68.699 0 0 0 
13.679 -16.427 70.122 0 0 0 
14.41 -16.412 70.681 0 0 0 
15.139 -16.397 71.341 0 0 0 
15.867 -16.385 71.811 0 0 0 
16.593 -16.371 72.423 0 0 0 
17.316 -16.358 73.049 0 0 0 
18.041 -16.347 73.463 0 0 0 
18.765 -16.334 73.934 0 0 0 
19.485 -16.319 74.569 0 0 0 
20.212 -16.308 74.774 0 0 0 
20.939 -16.298 74.882 0 0 0 
21.667 -16.288 74.982 0 0 0 
22.393 -16.277 75.123 0 0 0 
23.12 -16.264 75.289 0 0 0 
23.845 -16.248 75.49 0 0 0 
24.57 -16.233 75.684 0 0 0 
25.3 -16.22 75.677 0 0 0 
26.033 -16.207 75.579 0 0 0 
26.77 -16.197 75.332 0 0 0 
27.509 -16.187 75.057 0 0 0 
28.247 -16.186 74.799 0 0 0 
28.985 -16.186 74.5 0 0 0 
29.724 -16.186 74.214 0 0 0 
30.46 -16.186 73.999 0 0 0 
31.21 -16.192 73.399 0 0 0 
31.967 -16.202 72.568 0 0 0 
32.729 -16.218 71.587 0 0 0 
33.485 -16.241 70.655 0 0 0 
34.239 -16.273 69.604 0 0 0 
34.994 -16.327 68.118 0 0 0 
35.749 -16.367 66.852 0 0 0 
36.501 -16.394 65.813 0 0 0 
37.263 -16.423 64.5 0 0 0 
38.015 -16.437 63.617 0 0 0 
38.772 -16.451 62.592 0 0 0 
39.526 -16.459 61.706 0 0 0 
40.279 -16.46 60.94 0 0 0 
41.033 -16.46 60.114 0 0 0 
41.775 -16.489 58.715 0 0 0 
42.519 -16.527 57.184 0 0 0 
43.3 -16.716 51.431 0 0 0 
44.271 -17.011 42.935 0 0 0 
45.048 -17.041 41.977 0 0 0 
45.806 -17.047 41.669 0 0 0 
46.559 -17.048 41.499 0 0 0 
47.313 -17.05 41.31 0 0 0 
48.064 -17.046 41.214 0 0 0 
48.819 -17.043 40.957 0 0 0 
49.573 -17.037 40.749 0 0 0 
50.327 -17.032 40.505 0 0 0 
51.085 -17.031 40.111 0 0 0 
51.839 -17.024 39.904 0 0 0 
52.597 -17.022 39.627 0 0 0 
53.349 -17.016 39.399 0 0 0 
54.101 -17.012 39.132 0 0 0 
54.857 -17.011 38.795 0 0 0 
55.614 -17.011 38.442 0 0 0 
56.377 -17.016 37.973 0 0 0 
57.128 -17.009 37.809 0 0 0 
57.877 -17 37.687 0 0 0 
58.652 -17.016 37.136 0 0 0 
59.408 -17.015 36.972 0 0 0 
60.167 -17.017 36.773 0 0 0 
60.928 -17.02 36.517 0 0 0 
61.689 -17.023 36.283 0 0 0 
62.443 -17.02 36.176 0 0 0 
63.202 -17.022 36.001 0 0 0 
63.967 -17.033 35.754 0 0 0 
64.729 -17.041 35.552 0 0 0 
65.488 -17.046 35.424 0 0 0 
66.251 -17.054 35.201 0 0 0 
67.017 -17.064 34.926 0 0 0 
67.772 -17.065 34.886 0 0 0 
68.534 -17.07 34.695 0 0 0 
69.299 -17.076 34.431 0 0 0 
70.063 -17.081 34.205 0 0 0 
70.827 -17.085 33.966 0 0 0 
71.594 -17.092 33.662 0 0 0 
72.353 -17.093 33.51 0 0 0 
73.12 -17.1 33.196 0 0 0 
73.887 -17.107 32.874 0 0 0 
74.651 -17.113 32.585 0 0 0 
75.428 -17.127 32.069 0 0 0 
76.205 -17.141 31.548 0 0 0 
76.974 -17.15 31.185 0 0 0 
77.747 -17.161 30.771 0 0 0 
78.526 -17.176 30.215 0 0 0 
79.289 -17.184 29.887 0 0 0 
80.058 -17.199 29.222 0 0 0 
80.823 -17.208 28.708 0 0 0 
81.595 -17.222 27.978 0 0 0 
82.365 -17.231 27.34 0 0 0 
83.135 -17.239 26.702 0 0 0 
83.909 -17.245 25.965 0 0 0 
84.684 -17.249 25.232 0 0 0 
85.462 -17.251 24.379 0 0 0 
86.234 -17.248 23.669 0 0 0 
87.021 -17.247 22.51 0 0 0 
87.792 -17.237 21.834 0 0 0 
88.573 -17.226 20.816 0 0 0 
89.387 -17.251 19.647 0 0 0 
90.226 -17.285 18.688 0 0 0 
91.1 -17.328 17.305 0 0 0 
91.974 -17.367 15.907 0 0 0 
92.861 -17.405 14.342 0 0 0 
93.706 -17.429 13.273 0 0 0 
94.658 -17.476 10.906 0 0 0 
95.518 -17.489 9.154 0 0 0 
96.359 -17.485 6.856 0 0 0 
97.227 -17.483 4.044 0 0 0 
98.093 -17.482 1.481 0 0 0 
99.333 -17.645 -5.26 0 0 0 
100.418 -17.761 -9.127 0 0 0 
101.449 -17.948 -13.47 0 0 0 
-61.46 -17.699 -19.386 0 0 0 
-60.46 -17.57 -13.803 0 0 0 
-59.458 -17.447 -8.257 0 0 0 
-58.511 -17.36 -3.483 0 0 0 
-57.599 -17.264 1.305 0 0 0 
-56.787 -17.193 4.141 0 0 0 
-55.996 -17.142 6.172 0 0 0 
-55.189 -17.074 8.875 0 0 0 
-54.383 -17.038 10.65 0 0 0 
-53.516 -17.019 12.651 0 0 0 
-52.689 -17.007 13.942 0 0 0 
-51.881 -16.999 14.961 0 0 0 
-51.009 -16.985 16.883 0 0 0 
-50.169 -16.977 18.234 0 0 0 
-49.357 -16.974 19.125 0 0 0 
-48.528 -16.957 20.424 0 0 0 
-47.734 -16.916 21.687 0 0 0 
-46.947 -16.879 22.751 0 0 0 
-46.178 -16.852 23.421 0 0 0 
-45.394 -16.81 24.54 0 0 0 
-44.623 -16.784 25.269 0 0 0 
-43.849 -16.757 26.082 0 0 0 
-43.08 -16.737 26.738 0 0 0 
-42.311 -16.718 27.422 0 0 0 
-41.538 -16.698 28.16 0 0 0 
-40.766 -16.681 28.796 0 0 0 
-39.995 -16.666 29.405 0 0 0 
-39.227 -16.655 29.899 0 0 0 
-38.46 -16.643 30.429 0 0 0 
-37.694 -16.632 30.932 0 0 0 
-36.931 -16.622 31.383 0 0 0 
-36.177 -16.622 31.621 0 0 0 
-35.413 -16.614 32.223 0 0 0 
-34.659 -16.614 32.519 0 0 0 
-33.904 -16.614 32.825 0 0 0 
-33.146 -16.61 33.235 0 0 0 
-32.392 -16.61 33.519 0 0 0 
-31.642 -16.613 33.657 0 0 0 
-30.89 -16.6 34.073 0 0 0 
-30.14 -16.591 34.379 0 0 0 
-29.396 -16.587 34.53 0 0 0 
-28.647 -16.58 34.789 0 0 0 
-27.9 -16.575 35.015 0 0 0 
-27.149 -16.567 35.336 0 0 0 
-26.404 -16.563 35.474 0 0 0 
-25.657 -16.554 35.685 0 0 0 
-24.912 -16.545 35.861 0 0 0 
-24.167 -16.538 36.019 0 0 0 
-23.421 -16.53 36.194 0 0 0 
-22.676 -16.523 36.361 0 0 0 
-21.935 -16.518 36.399 0 0 0 
-21.193 -16.515 36.484 0 0 0 
-20.447 -16.51 36.697 0 0 0 
-19.701 -16.506 36.901 0 0 0 
-18.963 -16.506 36.893 0 0 0 
-18.218 -16.503 37.039 0 0 0 
-17.47 -16.5 37.279 0 0 0 
-16.728 -16.499 37.362 0 0 0 
-15.978 -16.496 37.404 0 0 0 
-15.221 -16.49 37.659 0 0 0 
-14.464 -16.484 37.934 0 0 0 
-13.701 -16.476 38.378 0 0 0 
-12.949 -16.471 38.538 0 0 0 
-12.193 -16.465 38.831 0 0 0 
-11.446 -16.464 38.909 0 0 0 
-10.699 -16.466 39.044 0 0 0 
-9.943 -16.465 39.497 0 0 0 
-9.194 -16.467 39.794 0 0 0 
-8.445 -16.466 40.182 0 0 0 
-7.701 -16.465 40.479 0 0 0 
-6.957 -16.463 40.821 0 0 0 
-6.209 -16.453 41.175 0 0 0 
-5.461 -16.443 41.426 0 0 0 
-4.713 -16.432 41.712 0 0 0 
-3.965 -16.418 42.155 0 0 0 
-3.218 -16.405 42.503 0 0 0 
-2.472 -16.396 42.671 0 0 0 
-1.727 -16.386 42.94 0 0 0 
-0.983 -16.37 43.398 0 0 0 
-0.24 -16.36 43.62 0 0 0 
0.503 -16.349 43.856 0 0 0 
1.246 -16.334 44.414 0 0 0 
1.991 -16.303 46.168 0 0 0 
2.735 -16.273 48.094 0 0 0 
3.478 -16.253 49.429 0 0 0 
4.22 -16.162 51.983 0 0 0 
4.956 -15.959 56.437 0 0 0 
5.687 -15.839 58.751 0 0 0 
6.418 -15.763 60.04 0 0 0 
7.145 -15.746 60.771 0 0 0 
7.872 -15.731 61.572 0 0 0 
8.597 -15.716 62.469 0 0 0 
9.323 -15.703 63.186 0 0 0 
10.046 -15.695 64.381 0 0 0 
10.769 -15.692 65.783 0 0 0 
11.495 -15.688 66.703 0 0 0 
12.22 -15.69 67.782 0 0 0 
12.948 -15.691 68.587 0 0 0 
13.675 -15.7 70.003 0 0 0 
14.405 -15.685 70.597 0 0 0 
15.134 -15.672 71.121 0 0 0 
15.86 -15.658 71.807 0 0 0 
16.584 -15.645 72.489 0 0 0 
17.308 -15.633 72.983 0 0 0 
18.031 -15.621 73.526 0 0 0 
18.756 -15.607 73.954 0 0 0 
19.477 -15.592 74.522 0 0 0 
20.203 -15.58 74.749 0 0 0 
20.931 -15.568 74.869 0 0 0 
21.656 -15.556 75.065 0 0 0 
22.384 -15.544 75.159 0 0 0 
23.109 -15.53 75.397 0 0 0 
23.835 -15.516 75.551 0 0 0 
24.561 -15.501 75.73 0 0 0 
25.292 -15.489 75.725 0 0 0 
26.025 -15.477 75.631 0 0 0 
26.761 -15.466 75.455 0 0 0 
27.503 -15.458 75.102 0 0 0 
28.242 -15.457 74.803 0 0 0 
28.979 -15.456 74.543 0 0 0 
29.722 -15.458 74.129 0 0 0 
30.464 -15.459 73.759 0 0 0 
31.207 -15.462 73.356 0 0 0 
31.965 -15.471 72.536 0 0 0 
32.73 -15.488 71.477 0 0 0 
33.482 -15.507 70.703 0 0 0 
34.243 -15.55 69.33 0 0 0 
34.992 -15.596 68.078 0 0 0 
35.749 -15.641 66.666 0 0 0 
36.507 -15.676 65.353 0 0 0 
37.262 -15.698 64.308 0 0 0 
38.02 -15.717 63.208 0 0 0 
38.778 -15.731 62.156 0 0 0 
39.538 -15.739 61.124 0 0 0 
40.293 -15.74 60.323 0 0 0 
41.039 -15.754 59.217 0 0 0 
41.781 -15.796 57.432 0 0 0 
42.535 -15.886 54.19 0 0 0 
43.495 -16.243 43.744 0 0 0 
44.295 -16.299 42.073 0 0 0 
45.051 -16.304 41.816 0 0 0 
45.808 -16.309 41.524 0 0 0 
46.563 -16.312 41.31 0 0 0 
47.315 -16.311 41.216 0 0 0 
48.066 -16.308 41.093 0 0 0 
48.819 -16.304 40.867 0 0 0 
49.572 -16.299 40.634 0 0 0 
50.329 -16.298 40.263 0 0 0 
51.085 -16.295 39.947 0 0 0 
51.843 -16.294 39.622 0 0 0 
52.6 -16.291 39.366 0 0 0 
53.354 -16.288 39.088 0 0 0 
54.104 -16.282 38.863 0 0 0 
54.861 -16.282 38.502 0 0 0 
55.619 -16.282 38.144 0 0 0 
56.377 -16.282 37.802 0 0 0 
57.13 -16.276 37.593 0 0 0 
57.89 -16.277 37.242 0 0 0 
58.653 -16.282 36.951 0 0 0 
59.412 -16.284 36.736 0 0 0 
60.17 -16.284 36.561 0 0 0 
60.93 -16.286 36.332 0 0 0 
61.692 -16.289 36.077 0 0 0 
62.447 -16.287 35.948 0 0 0 
63.204 -16.287 35.82 0 0 0 
63.971 -16.299 35.52 0 0 0 
64.732 -16.305 35.352 0 0 0 
65.491 -16.309 35.215 0 0 0 
66.253 -16.316 35.006 0 0 0 
67.016 -16.323 34.786 0 0 0 
67.768 -16.321 34.794 0 0 0 
68.533 -16.327 34.548 0 0 0 
69.295 -16.331 34.34 0 0 0 
70.057 -16.334 34.141 0 0 0 
70.821 -16.339 33.914 0 0 0 
71.588 -16.346 33.599 0 0 0 
72.351 -16.349 33.38 0 0 0 
73.117 -16.354 33.089 0 0 0 
73.879 -16.358 32.858 0 0 0 
74.648 -16.367 32.496 0 0 0 
75.42 -16.378 32.06 0 0 0 
76.201 -16.394 31.464 0 0 0 
76.969 -16.402 31.129 0 0 0 
77.739 -16.411 30.769 0 0 0 
78.52 -16.428 30.176 0 0 0 
79.283 -16.436 29.84 0 0 0 
80.054 -16.451 29.174 0 0 0 
80.819 -16.46 28.683 0 0 0 
81.59 -16.471 28.035 0 0 0 
82.362 -16.482 27.322 0 0 0 
83.13 -16.488 26.756 0 0 0 
83.906 -16.494 25.983 0 0 0 
84.678 -16.496 25.303 0 0 0 
85.456 -16.498 24.409 0 0 0 
86.227 -16.494 23.741 0 0 0 
87.015 -16.493 22.545 0 0 0 
87.785 -16.481 21.874 0 0 0 
88.565 -16.47 20.873 0 0 0 
89.371 -16.492 19.745 0 0 0 
90.218 -16.527 18.696 0 0 0 
91.09 -16.566 17.359 0 0 0 
91.965 -16.603 15.962 0 0 0 
92.856 -16.641 14.357 0 0 0 
93.697 -16.662 13.341 0 0 0 
94.65 -16.706 10.984 0 0 0 
95.51 -16.719 9.286 0 0 0 
96.333 -16.714 7.416 0 0 0 
97.205 -16.709 4.344 0 0 0 
98.054 -16.705 2.124 0 0 0 
99.295 -16.863 -4.906 0 0 0 
100.403 -16.994 -9.013 0 0 0 
101.432 -17.176 -13.239 0 0 0 
-61.563 -16.968 -21.878 0 0 0 
-60.412 -16.775 -12.619 0 0 0 
-59.434 -16.671 -7.625 0 0 0 
-58.486 -16.587 -2.821 0 0 0 
-57.595 -16.502 1.447 0 0 0 
-56.783 -16.433 4.229 0 0 0 
-55.994 -16.384 6.168 0 0 0 
-55.185 -16.315 8.94 0 0 0 
-54.38 -16.281 10.643 0 0 0 
-53.509 -16.263 12.733 0 0 0 
-52.702 -16.254 13.714 0 0 0 
-51.872 -16.244 15.095 0 0 0 
-51.015 -16.233 16.822 0 0 0 
-50.192 -16.228 17.951 0 0 0 
-49.36 -16.223 19.135 0 0 0 
-48.533 -16.208 20.389 0 0 0 
-47.74 -16.169 21.588 0 0 0 
-46.955 -16.134 22.588 0 0 0 
-46.182 -16.102 23.362 0 0 0 
-45.4 -16.064 24.386 0 0 0 
-44.627 -16.036 25.146 0 0 0 
-43.852 -16.008 25.995 0 0 0 
-43.083 -15.987 26.646 0 0 0 
-42.31 -15.965 27.405 0 0 0 
-41.538 -15.947 28.099 0 0 0 
-40.768 -15.931 28.696 0 0 0 
-39.996 -15.916 29.299 0 0 0 
-39.229 -15.905 29.791 0 0 0 
-38.46 -15.892 30.386 0 0 0 
-37.696 -15.881 30.863 0 0 0 
-36.934 -15.872 31.292 0 0 0 
-36.178 -15.87 31.597 0 0 0 
-35.417 -15.864 32.163 0 0 0 
-34.663 -15.864 32.44 0 0 0 
-33.909 -15.864 32.734 0 0 0 
-33.15 -15.86 33.185 0 0 0 
-32.396 -15.859 33.464 0 0 0 
-31.648 -15.865 33.547 0 0 0 
-30.9 -15.855 33.84 0 0 0 
-30.15 -15.845 34.174 0 0 0 
-29.405 -15.84 34.356 0 0 0 
-28.655 -15.831 34.673 0 0 0 
-27.909 -15.827 34.867 0 0 0 
-27.162 -15.822 35.082 0 0 0 
-26.414 -15.816 35.289 0 0 0 
-25.667 -15.808 35.494 0 0 0 
-24.918 -15.799 35.767 0 0 0 
-24.175 -15.796 35.827 0 0 0 
-23.432 -15.791 35.923 0 0 0 
-22.686 -15.786 36.065 0 0 0 
-21.942 -15.781 36.189 0 0 0 
-21.2 -15.778 36.25 0 0 0 
-20.46 -15.776 36.323 0 0 0 
-19.711 -15.769 36.62 0 0 0 
-18.97 -15.768 36.681 0 0 0 
-18.227 -15.766 36.784 0 0 0 
-17.48 -15.763 36.994 0 0 0 
-16.734 -15.761 37.175 0 0 0 
-15.986 -15.757 37.19 0 0 0 
-15.234 -15.753 37.312 0 0 0 
-14.478 -15.747 37.538 0 0 0 
-13.718 -15.741 37.896 0 0 0 
-12.962 -15.735 38.143 0 0 0 
-12.207 -15.73 38.389 0 0 0 
-11.458 -15.727 38.512 0 0 0 
-10.711 -15.728 38.66 0 0 0 
-9.96 -15.727 38.961 0 0 0 
-9.205 -15.725 39.479 0 0 0 
-8.454 -15.725 39.875 0 0 0 
-7.709 -15.724 40.138 0 0 0 
-6.963 -15.718 40.641 0 0 0 
-6.216 -15.708 41.009 0 0 0 
-5.468 -15.698 41.245 0 0 0 
-4.719 -15.685 41.613 0 0 0 
-3.97 -15.671 42.069 0 0 0 
-3.223 -15.658 42.481 0 0 0 
-2.477 -15.649 42.64 0 0 0 
-1.731 -15.638 42.979 0 0 0 
-0.987 -15.623 43.413 0 0 0 
-0.244 -15.613 43.626 0 0 0 
0.498 -15.601 43.925 0 0 0 
1.242 -15.586 44.518 0 0 0 
1.986 -15.564 45.739 0 0 0 
2.731 -15.538 47.359 0 0 0 
3.473 -15.52 48.5 0 0 0 
4.215 -15.485 50.44 0 0 0 
4.951 -15.298 54.646 0 0 0 
5.685 -15.155 57.631 0 0 0 
6.418 -15.086 58.858 0 0 0 
7.151 -15.017 59.995 0 0 0 
7.877 -15.005 61.033 0 0 0 
8.601 -14.99 61.971 0 0 0 
9.326 -14.976 62.79 0 0 0 
10.047 -14.967 63.973 0 0 0 
10.767 -14.963 65.412 0 0 0 
11.491 -14.96 66.458 0 0 0 
12.216 -14.959 67.459 0 0 0 
12.941 -14.961 68.392 0 0 0 
13.667 -14.968 69.683 0 0 0 
14.395 -14.958 70.494 0 0 0 
15.124 -14.944 71.016 0 0 0 
15.85 -14.93 71.661 0 0 0 
16.572 -14.915 72.428 0 0 0 
17.296 -14.904 72.913 0 0 0 
18.019 -14.891 73.436 0 0 0 
18.743 -14.877 73.875 0 0 0 
19.465 -14.863 74.332 0 0 0 
20.188 -14.849 74.714 0 0 0 
20.915 -14.837 74.865 0 0 0 
21.642 -14.824 75.034 0 0 0 
22.37 -14.813 75.095 0 0 0 
23.095 -14.799 75.371 0 0 0 
23.827 -14.789 75.375 0 0 0 
24.551 -14.775 75.656 0 0 0 
25.284 -14.765 75.615 0 0 0 
26.018 -14.755 75.555 0 0 0 
26.756 -14.746 75.368 0 0 0 
27.497 -14.739 75.064 0 0 0 
28.238 -14.739 74.69 0 0 0 
28.975 -14.737 74.466 0 0 0 
29.718 -14.738 74.039 0 0 0 
30.461 -14.74 73.618 0 0 0 
31.204 -14.742 73.221 0 0 0 
31.959 -14.749 72.461 0 0 0 
32.724 -14.765 71.4 0 0 0 
33.476 -14.784 70.617 0 0 0 
34.235 -14.828 69.202 0 0 0 
34.982 -14.869 68.079 0 0 0 
35.745 -14.922 66.382 0 0 0 
36.506 -14.96 64.924 0 0 0 
37.26 -14.979 63.928 0 0 0 
38.021 -14.999 62.745 0 0 0 
38.787 -15.018 61.401 0 0 0 
39.552 -15.029 60.211 0 0 0 
40.294 -15.042 59.197 0 0 0 
41.037 -15.077 57.511 0 0 0 
41.789 -15.145 54.801 0 0 0 
42.673 -15.418 46.081 0 0 0 
43.524 -15.539 42.55 0 0 0 
44.286 -15.551 42.084 0 0 0 
45.042 -15.556 41.811 0 0 0 
45.799 -15.561 41.512 0 0 0 
46.554 -15.563 41.308 0 0 0 
47.305 -15.562 41.208 0 0 0 
48.059 -15.563 40.995 0 0 0 
48.814 -15.56 40.768 0 0 0 
49.57 -15.559 40.472 0 0 0 
50.329 -15.56 40.067 0 0 0 
51.088 -15.561 39.731 0 0 0 
51.853 -15.566 39.294 0 0 0 
52.608 -15.562 39.096 0 0 0 
53.359 -15.556 38.9 0 0 0 
54.119 -15.558 38.452 0 0 0 
54.87 -15.553 38.232 0 0 0 
55.628 -15.553 37.864 0 0 0 
56.384 -15.551 37.562 0 0 0 
57.142 -15.55 37.256 0 0 0 
57.897 -15.546 37.014 0 0 0 
58.655 -15.547 36.817 0 0 0 
59.415 -15.549 36.581 0 0 0 
60.172 -15.55 36.399 0 0 0 
60.937 -15.556 36.075 0 0 0 
61.698 -15.559 35.821 0 0 0 
62.453 -15.556 35.708 0 0 0 
63.212 -15.558 35.525 0 0 0 
63.974 -15.566 35.306 0 0 0 
64.729 -15.567 35.228 0 0 0 
65.488 -15.571 35.087 0 0 0 
66.248 -15.577 34.9 0 0 0 
67.009 -15.581 34.717 0 0 0 
67.76 -15.579 34.725 0 0 0 
68.527 -15.587 34.425 0 0 0 
69.287 -15.588 34.276 0 0 0 
70.049 -15.591 34.076 0 0 0 
70.814 -15.596 33.813 0 0 0 
71.583 -15.603 33.473 0 0 0 
72.347 -15.607 33.232 0 0 0 
73.109 -15.609 33.027 0 0 0 
73.873 -15.614 32.743 0 0 0 
74.639 -15.62 32.441 0 0 0 
75.411 -15.63 32.016 0 0 0 
76.19 -15.644 31.452 0 0 0 
76.963 -15.654 31.023 0 0 0 
77.728 -15.659 30.756 0 0 0 
78.511 -15.676 30.129 0 0 0 
79.278 -15.687 29.712 0 0 0 
80.048 -15.7 29.123 0 0 0 
80.816 -15.711 28.575 0 0 0 
81.585 -15.721 28.021 0 0 0 
82.361 -15.734 27.231 0 0 0 
83.128 -15.739 26.721 0 0 0 
83.903 -15.745 25.985 0 0 0 
84.675 -15.746 25.297 0 0 0 
85.454 -15.749 24.385 0 0 0 
86.226 -15.744 23.697 0 0 0 
87.01 -15.742 22.583 0 0 0 
87.783 -15.731 21.846 0 0 0 
88.556 -15.718 21.049 0 0 0 
89.369 -15.74 19.732 0 0 0 
90.211 -15.773 18.749 0 0 0 
91.084 -15.813 17.38 0 0 0 
91.958 -15.848 15.994 0 0 0 
92.844 -15.883 14.443 0 0 0 
93.7 -15.907 13.242 0 0 0 
94.628 -15.944 11.169 0 0 0 
95.503 -15.96 9.341 0 0 0 
96.317 -15.953 7.673 0 0 0 
97.181 -15.945 4.754 0 0 0 
98.024 -15.938 2.561 0 0 0 
99.228 -16.075 -4.249 0 0 0 
100.336 -16.209 -8.348 0 0 0 
101.42 -16.408 -13.181 0 0 0 
-61.586 -16.205 -22.359 0 0 0 
-60.373 -15.985 -11.641 0 0 0 
-59.418 -15.901 -7.22 0 0 0 
-58.478 -15.823 -2.636 0 0 0 
-57.591 -15.741 1.559 0 0 0 
-56.778 -15.67 4.402 0 0 0 
-55.992 -15.625 6.216 0 0 0 
-55.185 -15.558 8.874 0 0 0 
-54.392 -15.526 10.391 0 0 0 
-53.523 -15.509 12.465 0 0 0 
-52.707 -15.5 13.616 0 0 0 
-51.874 -15.491 15.05 0 0 0 
-51.029 -15.482 16.623 0 0 0 
-50.202 -15.476 17.84 0 0 0 
-49.374 -15.473 18.988 0 0 0 
-48.546 -15.466 20.149 0 0 0 
-47.754 -15.428 21.304 0 0 0 
-46.964 -15.389 22.428 0 0 0 
-46.188 -15.355 23.245 0 0 0 
-45.409 -15.319 24.165 0 0 0 
-44.632 -15.288 25.039 0 0 0 
-43.854 -15.258 25.913 0 0 0 
-43.086 -15.238 26.54 0 0 0 
-42.308 -15.212 27.425 0 0 0 
-41.539 -15.196 28.021 0 0 0 
-40.77 -15.181 28.581 0 0 0 
-39.996 -15.165 29.232 0 0 0 
-39.229 -15.154 29.717 0 0 0 
-38.461 -15.142 30.276 0 0 0 
-37.699 -15.132 30.739 0 0 0 
-36.935 -15.121 31.24 0 0 0 
-36.179 -15.118 31.592 0 0 0 
-35.42 -15.113 32.089 0 0 0 
-34.666 -15.114 32.39 0 0 0 
-33.914 -15.116 32.607 0 0 0 
-33.155 -15.11 33.086 0 0 0 
-32.402 -15.111 33.343 0 0 0 
-31.653 -15.116 33.458 0 0 0 
-30.909 -15.11 33.626 0 0 0 
-30.158 -15.098 34.006 0 0 0 
-29.415 -15.094 34.135 0 0 0 
-28.666 -15.086 34.441 0 0 0 
-27.917 -15.079 34.719 0 0 0 
-27.173 -15.076 34.846 0 0 0 
-26.424 -15.068 35.122 0 0 0 
-25.679 -15.064 35.244 0 0 0 
-24.928 -15.056 35.538 0 0 0 
-24.185 -15.054 35.58 0 0 0 
-23.441 -15.051 35.665 0 0 0 
-22.697 -15.048 35.765 0 0 0 
-21.951 -15.045 35.895 0 0 0 
-21.208 -15.041 36.016 0 0 0 
-20.469 -15.039 36.037 0 0 0 
-19.723 -15.034 36.244 0 0 0 
-18.982 -15.032 36.332 0 0 0 
-18.241 -15.03 36.388 0 0 0 
-17.501 -15.028 36.453 0 0 0 
-16.756 -15.026 36.602 0 0 0 
-16.001 -15.021 36.765 0 0 0 
-15.248 -15.016 36.912 0 0 0 
-14.488 -15.01 37.242 0 0 0 
-13.731 -15.004 37.5 0 0 0 
-12.974 -14.999 37.786 0 0 0 
-12.217 -14.993 38.082 0 0 0 
-11.466 -14.99 38.252 0 0 0 
-10.717 -14.988 38.473 0 0 0 
-9.967 -14.987 38.76 0 0 0 
-9.217 -14.985 39.103 0 0 0 
-8.463 -14.981 39.636 0 0 0 
-7.717 -14.98 39.907 0 0 0 
-6.971 -14.973 40.411 0 0 0 
-6.222 -14.963 40.817 0 0 0 
-5.474 -14.953 41.049 0 0 0 
-4.726 -14.941 41.405 0 0 0 
-3.977 -14.927 41.857 0 0 0 
-3.228 -14.913 42.33 0 0 0 
-2.482 -14.903 42.577 0 0 0 
-1.736 -14.891 42.916 0 0 0 
-0.992 -14.877 43.365 0 0 0 
-0.249 -14.865 43.656 0 0 0 
0.495 -14.853 44.068 0 0 0 
1.239 -14.836 44.778 0 0 0 
1.983 -14.817 45.774 0 0 0 
2.726 -14.798 46.965 0 0 0 
3.469 -14.78 48.127 0 0 0 
4.21 -14.763 49.591 0 0 0 
4.947 -14.649 52.512 0 0 0 
5.681 -14.498 55.827 0 0 0 
6.417 -14.419 57.415 0 0 0 
7.153 -14.358 58.534 0 0 0 
7.884 -14.279 60.423 0 0 0 
8.605 -14.265 61.629 0 0 0 
9.329 -14.25 62.388 0 0 0 
10.052 -14.238 63.283 0 0 0 
10.767 -14.234 65.036 0 0 0 
11.489 -14.231 66.148 0 0 0 
12.212 -14.228 67.051 0 0 0 
12.936 -14.229 68.053 0 0 0 
13.66 -14.237 69.368 0 0 0 
14.385 -14.23 70.405 0 0 0 
15.114 -14.217 70.834 0 0 0 
15.84 -14.203 71.449 0 0 0 
16.559 -14.186 72.385 0 0 0 
17.284 -14.175 72.774 0 0 0 
18.008 -14.162 73.243 0 0 0 
18.73 -14.147 73.789 0 0 0 
19.453 -14.133 74.224 0 0 0 
20.176 -14.119 74.574 0 0 0 
20.903 -14.106 74.743 0 0 0 
21.628 -14.093 74.95 0 0 0 
22.356 -14.081 75.066 0 0 0 
23.083 -14.07 75.262 0 0 0 
23.816 -14.061 75.281 0 0 0 
24.544 -14.05 75.478 0 0 0 
25.278 -14.042 75.465 0 0 0 
26.011 -14.033 75.487 0 0 0 
26.752 -14.027 75.226 0 0 0 
27.491 -14.02 75.066 0 0 0 
28.233 -14.02 74.631 0 0 0 
28.977 -14.02 74.189 0 0 0 
29.715 -14.019 73.901 0 0 0 
30.459 -14.021 73.455 0 0 0 
31.205 -14.024 72.951 0 0 0 
31.966 -14.033 72.019 0 0 0 
32.72 -14.043 71.257 0 0 0 
33.475 -14.063 70.334 0 0 0 
34.228 -14.108 69.031 0 0 0 
34.977 -14.15 67.846 0 0 0 
35.746 -14.211 65.832 0 0 0 
36.507 -14.246 64.396 0 0 0 
37.272 -14.274 62.986 0 0 0 
38.031 -14.29 61.883 0 0 0 
38.812 -14.32 59.928 0 0 0 
39.551 -14.339 58.72 0 0 0 
40.293 -14.36 57.507 0 0 0 
41.047 -14.432 54.457 0 0 0 
41.845 -14.582 48.908 0 0 0 
42.739 -14.761 43.551 0 0 0 
43.516 -14.792 42.541 0 0 0 
44.277 -14.803 42.072 0 0 0 
45.035 -14.809 41.75 0 0 0 
45.79 -14.813 41.491 0 0 0 
46.544 -14.815 41.304 0 0 0 
47.297 -14.815 41.161 0 0 0 
48.052 -14.816 40.926 0 0 0 
48.808 -14.816 40.672 0 0 0 
49.569 -14.82 40.242 0 0 0 
50.327 -14.821 39.933 0 0 0 
51.092 -14.827 39.495 0 0 0 
51.857 -14.832 39.072 0 0 0 
52.612 -14.828 38.934 0 0 0 
53.371 -14.831 38.51 0 0 0 
54.124 -14.827 38.239 0 0 0 
54.881 -14.827 37.877 0 0 0 
55.638 -14.826 37.539 0 0 0 
56.393 -14.822 37.282 0 0 0 
57.152 -14.823 36.93 0 0 0 
57.902 -14.815 36.796 0 0 0 
58.662 -14.818 36.545 0 0 0 
59.422 -14.82 36.315 0 0 0 
60.18 -14.82 36.112 0 0 0 
60.945 -14.827 35.78 0 0 0 
61.703 -14.827 35.59 0 0 0 
62.457 -14.824 35.493 0 0 0 
63.213 -14.824 35.36 0 0 0 
63.97 -14.827 35.224 0 0 0 
64.726 -14.83 35.111 0 0 0 
65.484 -14.833 34.958 0 0 0 
66.245 -14.838 34.769 0 0 0 
67.004 -14.842 34.597 0 0 0 
67.757 -14.841 34.553 0 0 0 
68.522 -14.846 34.307 0 0 0 
69.28 -14.846 34.183 0 0 0 
70.045 -14.85 33.927 0 0 0 
70.811 -14.855 33.637 0 0 0 
71.579 -14.861 33.328 0 0 0 
72.341 -14.863 33.114 0 0 0 
73.103 -14.865 32.902 0 0 0 
73.867 -14.869 32.626 0 0 0 
74.63 -14.873 32.388 0 0 0 
75.409 -14.886 31.815 0 0 0 
76.18 -14.894 31.424 0 0 0 
76.953 -14.903 30.995 0 0 0 
77.721 -14.91 30.65 0 0 0 
78.502 -14.924 30.096 0 0 0 
79.273 -14.938 29.562 0 0 0 
80.042 -14.95 29.054 0 0 0 
80.812 -14.962 28.491 0 0 0 
81.586 -14.975 27.826 0 0 0 
82.36 -14.986 27.131 0 0 0 
83.13 -14.993 26.555 0 0 0 
83.899 -14.995 26.002 0 0 0 
84.676 -14.999 25.184 0 0 0 
85.449 -14.998 24.454 0 0 0 
86.222 -14.993 23.734 0 0 0 
87.006 -14.991 22.619 0 0 0 
87.78 -14.98 21.838 0 0 0 
88.551 -14.967 21.116 0 0 0 
89.369 -14.99 19.702 0 0 0 
90.202 -15.019 18.808 0 0 0 
91.074 -15.057 17.455 0 0 0 
91.954 -15.094 15.986 0 0 0 
92.825 -15.124 14.621 0 0 0 
93.699 -15.152 13.196 0 0 0 
94.607 -15.183 11.355 0 0 0 
95.496 -15.201 9.362 0 0 0 
96.309 -15.193 7.708 0 0 0 
97.166 -15.182 4.912 0 0 0 
98.005 -15.172 2.718 0 0 0 
99.159 -15.285 -3.581 0 0 0 
100.259 -15.419 -7.577 0 0 0 
101.406 -15.639 -13.074 0 0 0 
-61.48 -15.398 -19.471 0 0 0 
-60.349 -15.205 -11.04 0 0 0 
-59.373 -15.118 -6.063 0 0 0 
-58.466 -15.058 -2.326 0 0 0 
-57.586 -14.979 1.698 0 0 0 
-56.781 -14.916 4.249 0 0 0 
-55.986 -14.863 6.37 0 0 0 
-55.184 -14.803 8.783 0 0 0 
-54.383 -14.769 10.481 0 0 0 
-53.528 -14.754 12.335 0 0 0 
-52.706 -14.746 13.59 0 0 0 
-51.877 -14.737 14.994 0 0 0 
-51.032 -14.729 16.599 0 0 0 
-50.218 -14.726 17.635 0 0 0 
-49.383 -14.722 18.912 0 0 0 
-48.555 -14.719 20.037 0 0 0 
-47.767 -14.686 21.052 0 0 0 
-46.97 -14.641 22.337 0 0 0 
-46.201 -14.614 22.958 0 0 0 
-45.414 -14.571 24.068 0 0 0 
-44.639 -14.542 24.855 0 0 0 
-43.861 -14.512 25.734 0 0 0 
-43.094 -14.493 26.299 0 0 0 
-42.311 -14.463 27.309 0 0 0 
-41.544 -14.448 27.832 0 0 0 
-40.772 -14.431 28.459 0 0 0 
-39.999 -14.415 29.104 0 0 0 
-39.235 -14.406 29.508 0 0 0 
-38.463 -14.392 30.163 0 0 0 
-37.701 -14.383 30.628 0 0 0 
-36.941 -14.374 31.048 0 0 0 
-36.179 -14.366 31.608 0 0 0 
-35.423 -14.363 32.023 0 0 0 
-34.671 -14.365 32.272 0 0 0 
-33.92 -14.368 32.466 0 0 0 
-33.16 -14.361 33.005 0 0 0 
-32.407 -14.362 33.251 0 0 0 
-31.658 -14.366 33.387 0 0 0 
-30.914 -14.361 33.533 0 0 0 
-30.167 -14.352 33.821 0 0 0 
-29.424 -14.348 33.936 0 0 0 
-28.679 -14.343 34.106 0 0 0 
-27.928 -14.333 34.475 0 0 0 
-27.183 -14.329 34.645 0 0 0 
-26.439 -14.326 34.758 0 0 0 
-25.695 -14.325 34.815 0 0 0 
-24.942 -14.316 35.177 0 0 0 
-24.195 -14.313 35.332 0 0 0 
-23.447 -14.309 35.519 0 0 0 
-22.703 -14.308 35.595 0 0 0 
-21.959 -14.307 35.652 0 0 0 
-21.214 -14.303 35.818 0 0 0 
-20.478 -14.302 35.764 0 0 0 
-19.73 -14.296 36.046 0 0 0 
-18.991 -14.294 36.068 0 0 0 
-18.248 -14.291 36.188 0 0 0 
-17.509 -14.29 36.223 0 0 0 
-16.767 -14.288 36.305 0 0 0 
-16.012 -14.283 36.465 0 0 0 
-15.259 -14.278 36.578 0 0 0 
-14.498 -14.272 36.92 0 0 0 
-13.741 -14.266 37.186 0 0 0 
-12.982 -14.261 37.515 0 0 0 
-12.229 -14.256 37.694 0 0 0 
-11.475 -14.252 37.955 0 0 0 
-10.727 -14.25 38.149 0 0 0 
-9.975 -14.246 38.512 0 0 0 
-9.221 -14.241 39.024 0 0 0 
-8.474 -14.238 39.308 0 0 0 
-7.723 -14.234 39.791 0 0 0 
-6.977 -14.228 40.232 0 0 0 
-6.229 -14.216 40.663 0 0 0 
-5.48 -14.206 40.936 0 0 0 
-4.732 -14.195 41.238 0 0 0 
-3.983 -14.181 41.719 0 0 0 
-3.235 -14.169 42.101 0 0 0 
-2.488 -14.158 42.401 0 0 0 
-1.742 -14.147 42.715 0 0 0 
-0.997 -14.131 43.27 0 0 0 
-0.253 -14.12 43.563 0 0 0 
0.49 -14.108 43.913 0 0 0 
1.234 -14.09 44.767 0 0 0 
1.979 -14.073 45.706 0 0 0 
2.722 -14.056 46.682 0 0 0 
3.465 -14.039 47.821 0 0 0 
4.205 -14.022 49.24 0 0 0 
4.942 -13.956 51.344 0 0 0 
5.677 -13.853 53.661 0 0 0 
6.414 -13.753 55.832 0 0 0 
7.152 -13.692 57.076 0 0 0 
7.891 -13.593 59.142 0 0 0 
8.614 -13.539 60.901 0 0 0 
9.332 -13.524 62.096 0 0 0 
10.055 -13.511 62.932 0 0 0 
10.769 -13.506 64.571 0 0 0 
11.486 -13.503 65.942 0 0 0 
12.209 -13.499 66.799 0 0 0 
12.931 -13.499 67.761 0 0 0 
13.652 -13.507 69.131 0 0 0 
14.375 -13.503 70.299 0 0 0 
15.105 -13.49 70.693 0 0 0 
15.832 -13.476 71.204 0 0 0 
16.55 -13.458 72.172 0 0 0 
17.273 -13.446 72.631 0 0 0 
17.999 -13.434 72.989 0 0 0 
18.72 -13.419 73.544 0 0 0 
19.439 -13.402 74.168 0 0 0 
20.165 -13.389 74.424 0 0 0 
20.89 -13.376 74.657 0 0 0 
21.615 -13.363 74.886 0 0 0 
22.341 -13.35 75.044 0 0 0 
23.071 -13.34 75.179 0 0 0 
23.804 -13.332 75.235 0 0 0 
24.537 -13.325 75.311 0 0 0 
25.272 -13.318 75.299 0 0 0 
26.007 -13.312 75.299 0 0 0 
26.749 -13.307 75.081 0 0 0 
27.49 -13.302 74.877 0 0 0 
28.235 -13.302 74.36 0 0 0 
28.972 -13.301 74.097 0 0 0 
29.71 -13.299 73.838 0 0 0 
30.46 -13.302 73.195 0 0 0 
31.204 -13.304 72.742 0 0 0 
31.963 -13.312 71.839 0 0 0 
32.717 -13.322 71.062 0 0 0 
33.478 -13.345 69.924 0 0 0 
34.22 -13.385 68.934 0 0 0 
34.981 -13.447 67.107 0 0 0 
35.748 -13.501 65.214 0 0 0 
36.519 -13.546 63.347 0 0 0 
37.277 -13.562 62.26 0 0 0 
38.058 -13.595 60.318 0 0 0 
38.807 -13.63 58.384 0 0 0 
39.548 -13.644 57.364 0 0 0 
40.304 -13.711 54.291 0 0 0 
41.078 -13.819 49.804 0 0 0 
41.945 -13.969 44.9 0 0 0 
42.733 -14.015 43.538 0 0 0 
43.505 -14.04 42.64 0 0 0 
44.265 -14.05 42.212 0 0 0 
45.025 -14.06 41.787 0 0 0 
45.781 -14.065 41.478 0 0 0 
