ply
format ascii 1.0
comment VCGLIB generated
element vertex 1669
property float x
property float y
property float z
property float nx
property float ny
property float nz
element face 0
property list uchar int vertex_indices
end_header
71.889 -18.775 3.984 0 0 0 
72.667 -18.767 3.67 0 0 0 
73.443 -18.757 3.428 0 0 0 
74.22 -18.747 3.198 0 0 0 
74.998 -18.741 2.751 0 0 0 
75.771 -18.736 2.337 0 0 0 
76.542 -18.729 1.996 0 0 0 
77.334 -18.728 1.037 0 0 0 
78.112 -18.724 0.428 0 0 0 
78.899 -18.725 -0.286 0 0 0 
79.724 -18.746 -1.56 0 0 0 
80.519 -18.756 -2.264 0 0 0 
81.323 -18.772 -3.143 0 0 0 
82.14 -18.795 -4.265 0 0 0 
82.955 -18.818 -5.349 0 0 0 
83.758 -18.836 -6.227 0 0 0 
84.582 -18.866 -7.506 0 0 0 
85.405 -18.892 -8.731 0 0 0 
86.254 -18.923 -10.247 0 0 0 
87.127 -18.966 -11.774 0 0 0 
88.021 -19.025 -13.54 0 0 0 
89.009 -19.14 -16.519 0 0 0 
90.137 -19.329 -21.864 0 0 0 
91.066 -19.397 -24.826 0 0 0 
91.85 -19.395 -24.964 0 0 0 
-36.712 -18.843 -34.594 0 0 0 
-35.802 -18.776 -28.521 0 0 0 
-34.895 -18.643 -23.752 0 0 0 
-33.986 -18.518 -18.732 0 0 0 
-33.124 -18.471 -15.485 0 0 0 
-32.277 -18.434 -12.176 0 0 0 
-31.463 -18.412 -10.108 0 0 0 
-30.627 -18.373 -7.993 0 0 0 
-29.802 -18.339 -6.249 0 0 0 
-28.975 -18.303 -4.411 0 0 0 
-28.166 -18.277 -3.139 0 0 0 
-27.365 -18.255 -2.095 0 0 0 
-26.549 -18.224 -0.443 0 0 0 
-25.769 -18.204 0.63 0 0 0 
-24.998 -18.184 1.649 0 0 0 
-24.223 -18.158 2.998 0 0 0 
-23.452 -18.141 3.98 0 0 0 
-22.683 -18.128 4.824 0 0 0 
-21.914 -18.115 5.716 0 0 0 
-21.146 -18.107 6.636 0 0 0 
-20.379 -18.104 7.39 0 0 0 
-19.608 -18.103 8.232 0 0 0 
-18.841 -18.108 8.762 0 0 0 
-18.069 -18.113 9.44 0 0 0 
-17.301 -18.123 9.868 0 0 0 
-16.535 -18.125 10.044 0 0 0 
-15.769 -18.12 10.278 0 0 0 
-15.004 -18.113 10.646 0 0 0 
-14.241 -18.108 10.897 0 0 0 
-13.48 -18.104 11.096 0 0 0 
-12.718 -18.102 11.192 0 0 0 
-11.957 -18.101 11.211 0 0 0 
-11.2 -18.102 11.057 0 0 0 
-10.44 -18.105 10.721 0 0 0 
-9.677 -18.111 10.273 0 0 0 
-8.917 -18.115 9.892 0 0 0 
-8.168 -18.121 9.371 0 0 0 
-7.422 -18.131 8.685 0 0 0 
-6.666 -18.133 8.34 0 0 0 
-5.903 -18.128 8.16 0 0 0 
-5.139 -18.123 8 0 0 0 
-4.374 -18.118 7.922 0 0 0 
-3.605 -18.107 8.061 0 0 0 
-2.834 -18.093 8.277 0 0 0 
-2.062 -18.075 8.587 0 0 0 
-1.291 -18.052 9.122 0 0 0 
-0.524 -18.033 9.587 0 0 0 
0.241 -18.017 9.957 0 0 0 
0.984 -18.007 10.339 0 0 0 
1.7 -17.992 11.208 0 0 0 
2.447 -17.986 11.443 0 0 0 
3.193 -17.979 11.694 0 0 0 
3.911 -17.968 12.556 0 0 0 
4.613 -17.953 13.75 0 0 0 
5.321 -17.938 14.878 0 0 0 
6.03 -17.922 16.02 0 0 0 
6.739 -17.905 17.202 0 0 0 
7.453 -17.887 18.309 0 0 0 
8.201 -17.88 18.787 0 0 0 
8.97 -17.879 19.088 0 0 0 
9.723 -17.874 19.853 0 0 0 
10.535 -17.846 20.966 0 0 0 
11.338 -17.827 21.65 0 0 0 
12.134 -17.811 22.237 0 0 0 
12.932 -17.787 23.017 0 0 0 
13.708 -17.771 23.492 0 0 0 
14.473 -17.76 23.763 0 0 0 
15.241 -17.741 24.294 0 0 0 
16.002 -17.728 24.631 0 0 0 
16.764 -17.709 25.145 0 0 0 
17.521 -17.697 25.452 0 0 0 
18.277 -17.678 25.993 0 0 0 
19.026 -17.668 26.221 0 0 0 
19.775 -17.654 26.559 0 0 0 
20.522 -17.64 26.887 0 0 0 
21.268 -17.622 27.355 0 0 0 
22.013 -17.611 27.582 0 0 0 
22.757 -17.597 27.902 0 0 0 
23.498 -17.586 28.126 0 0 0 
24.233 -17.575 28.394 0 0 0 
24.968 -17.568 28.542 0 0 0 
25.702 -17.559 28.749 0 0 0 
26.435 -17.553 28.91 0 0 0 
27.169 -17.548 28.999 0 0 0 
27.903 -17.544 29.084 0 0 0 
28.644 -17.545 29.193 0 0 0 
29.39 -17.55 29.274 0 0 0 
30.139 -17.557 29.261 0 0 0 
30.885 -17.563 29.31 0 0 0 
31.632 -17.569 29.373 0 0 0 
32.38 -17.577 29.364 0 0 0 
33.133 -17.588 29.207 0 0 0 
33.894 -17.602 28.953 0 0 0 
34.654 -17.615 28.728 0 0 0 
35.415 -17.629 28.445 0 0 0 
36.177 -17.642 28.146 0 0 0 
36.947 -17.661 27.571 0 0 0 
37.708 -17.672 27.274 0 0 0 
38.468 -17.684 27.048 0 0 0 
39.239 -17.704 26.463 0 0 0 
40.005 -17.721 26.031 0 0 0 
40.767 -17.735 25.717 0 0 0 
41.536 -17.752 25.125 0 0 0 
42.301 -17.766 24.66 0 0 0 
43.062 -17.779 24.28 0 0 0 
43.832 -17.788 23.585 0 0 0 
44.596 -17.79 23.196 0 0 0 
45.365 -17.795 22.566 0 0 0 
46.135 -17.801 21.905 0 0 0 
46.903 -17.806 21.293 0 0 0 
47.67 -17.81 20.711 0 0 0 
48.443 -17.816 19.957 0 0 0 
49.226 -17.827 19.289 0 0 0 
50.009 -17.837 18.63 0 0 0 
50.794 -17.847 17.939 0 0 0 
51.594 -17.859 16.948 0 0 0 
52.383 -17.866 16.222 0 0 0 
53.17 -17.872 15.558 0 0 0 
54.065 -17.897 12.606 0 0 0 
55.026 -17.979 6.205 0 0 0 
55.878 -18.062 1.966 0 0 0 
56.687 -18.12 -0.098 0 0 0 
57.553 -18.145 -2.123 0 0 0 
58.267 -18.167 -1.127 0 0 0 
59.006 -18.192 -0.656 0 0 0 
59.696 -18.155 1.774 0 0 0 
60.439 -18.122 2.791 0 0 0 
61.196 -18.106 3.16 0 0 0 
61.961 -18.097 3.217 0 0 0 
62.714 -18.078 3.739 0 0 0 
63.465 -18.059 4.315 0 0 0 
64.218 -18.042 4.761 0 0 0 
64.971 -18.035 5.117 0 0 0 
65.728 -18.031 5.308 0 0 0 
66.491 -18.031 5.29 0 0 0 
67.255 -18.032 5.229 0 0 0 
68.023 -18.035 5.028 0 0 0 
68.791 -18.037 4.864 0 0 0 
69.56 -18.036 4.726 0 0 0 
70.331 -18.027 4.576 0 0 0 
71.102 -18.017 4.442 0 0 0 
71.877 -18.009 4.189 0 0 0 
72.651 -17.999 3.994 0 0 0 
73.431 -17.991 3.647 0 0 0 
74.205 -17.981 3.454 0 0 0 
74.98 -17.974 3.047 0 0 0 
75.751 -17.967 2.661 0 0 0 
76.525 -17.961 2.151 0 0 0 
77.302 -17.955 1.51 0 0 0 
78.087 -17.951 0.619 0 0 0 
78.857 -17.943 0.135 0 0 0 
79.676 -17.962 -1.105 0 0 0 
80.484 -17.978 -2.001 0 0 0 
81.279 -17.99 -2.69 0 0 0 
82.105 -18.016 -3.922 0 0 0 
82.919 -18.038 -4.947 0 0 0 
83.729 -18.057 -5.887 0 0 0 
84.56 -18.088 -7.211 0 0 0 
85.385 -18.114 -8.406 0 0 0 
86.23 -18.142 -9.873 0 0 0 
87.09 -18.178 -11.252 0 0 0 
87.993 -18.243 -13.163 0 0 0 
88.936 -18.336 -15.554 0 0 0 
90.051 -18.534 -20.254 0 0 0 
91.028 -18.617 -24.171 0 0 0 
91.861 -18.631 -25.274 0 0 0 
-36.696 -18.054 -33.54 0 0 0 
-35.779 -17.967 -27.487 0 0 0 
-34.875 -17.832 -22.772 0 0 0 
-33.96 -17.72 -17.694 0 0 0 
-33.104 -17.679 -14.615 0 0 0 
-32.264 -17.647 -11.623 0 0 0 
-31.442 -17.623 -9.454 0 0 0 
-30.609 -17.589 -7.388 0 0 0 
-29.787 -17.559 -5.667 0 0 0 
-28.959 -17.524 -3.744 0 0 0 
-28.16 -17.504 -2.678 0 0 0 
-27.352 -17.478 -1.378 0 0 0 
-26.548 -17.451 0.163 0 0 0 
-25.778 -17.429 1.242 0 0 0 
-25.004 -17.404 2.549 0 0 0 
-24.233 -17.386 3.59 0 0 0 
-23.463 -17.371 4.53 0 0 0 
-22.69 -17.355 5.621 0 0 0 
-21.921 -17.346 6.433 0 0 0 
-21.154 -17.342 7.229 0 0 0 
-20.383 -17.34 8.066 0 0 0 
-19.613 -17.343 8.757 0 0 0 
-18.843 -17.348 9.387 0 0 0 
-18.071 -17.356 9.983 0 0 0 
-17.306 -17.364 10.379 0 0 0 
-16.541 -17.363 10.698 0 0 0 
-15.777 -17.357 10.956 0 0 0 
-15.014 -17.351 11.275 0 0 0 
-14.253 -17.346 11.549 0 0 0 
-13.493 -17.341 11.804 0 0 0 
-12.734 -17.339 11.898 0 0 0 
-11.975 -17.339 11.859 0 0 0 
-11.217 -17.339 11.644 0 0 0 
-10.456 -17.341 11.266 0 0 0 
-9.694 -17.342 10.941 0 0 0 
-8.927 -17.346 10.425 0 0 0 
-8.165 -17.353 9.772 0 0 0 
-7.416 -17.359 9.184 0 0 0 
-6.664 -17.362 8.672 0 0 0 
-5.9 -17.356 8.542 0 0 0 
-5.133 -17.347 8.556 0 0 0 
-4.366 -17.338 8.565 0 0 0 
-3.597 -17.326 8.677 0 0 0 
-2.825 -17.308 8.981 0 0 0 
-2.052 -17.288 9.327 0 0 0 
-1.283 -17.269 9.691 0 0 0 
-0.519 -17.255 9.972 0 0 0 
0.216 -17.244 10.459 0 0 0 
0.946 -17.234 11.007 0 0 0 
1.675 -17.223 11.573 0 0 0 
2.41 -17.215 12.023 0 0 0 
3.146 -17.207 12.429 0 0 0 
3.855 -17.196 13.428 0 0 0 
4.571 -17.186 14.326 0 0 0 
5.279 -17.173 15.44 0 0 0 
5.994 -17.161 16.479 0 0 0 
6.701 -17.147 17.745 0 0 0 
7.42 -17.134 18.818 0 0 0 
8.175 -17.129 19.218 0 0 0 
8.944 -17.13 19.554 0 0 0 
9.733 -17.109 20.606 0 0 0 
10.547 -17.083 21.488 0 0 0 
11.346 -17.067 22.055 0 0 0 
12.145 -17.046 22.754 0 0 0 
12.94 -17.022 23.489 0 0 0 
13.711 -17.012 23.752 0 0 0 
14.478 -16.997 24.135 0 0 0 
15.243 -16.981 24.553 0 0 0 
16.006 -16.963 25.015 0 0 0 
16.766 -16.947 25.419 0 0 0 
17.524 -16.929 25.906 0 0 0 
18.278 -16.915 26.25 0 0 0 
19.027 -16.899 26.657 0 0 0 
19.773 -16.884 26.992 0 0 0 
20.518 -16.871 27.316 0 0 0 
21.261 -16.857 27.639 0 0 0 
22.003 -16.842 27.984 0 0 0 
22.745 -16.832 28.183 0 0 0 
23.484 -16.82 28.441 0 0 0 
24.218 -16.811 28.674 0 0 0 
24.953 -16.804 28.826 0 0 0 
25.686 -16.797 28.975 0 0 0 
26.419 -16.79 29.134 0 0 0 
27.15 -16.784 29.298 0 0 0 
27.884 -16.781 29.343 0 0 0 
28.625 -16.782 29.433 0 0 0 
29.369 -16.786 29.57 0 0 0 
30.117 -16.793 29.582 0 0 0 
30.863 -16.799 29.641 0 0 0 
31.611 -16.807 29.628 0 0 0 
32.361 -16.816 29.581 0 0 0 
33.111 -16.825 29.529 0 0 0 
33.869 -16.837 29.411 0 0 0 
34.633 -16.855 29.063 0 0 0 
35.397 -16.871 28.74 0 0 0 
36.157 -16.884 28.557 0 0 0 
36.92 -16.899 28.242 0 0 0 
37.691 -16.919 27.657 0 0 0 
38.451 -16.931 27.438 0 0 0 
39.214 -16.947 27.146 0 0 0 
39.987 -16.969 26.473 0 0 0 
40.752 -16.984 26.08 0 0 0 
41.515 -16.998 25.729 0 0 0 
42.282 -17.014 25.196 0 0 0 
43.049 -17.03 24.601 0 0 0 
43.81 -17.035 24.29 0 0 0 
44.58 -17.041 23.638 0 0 0 
45.35 -17.046 22.965 0 0 0 
46.113 -17.049 22.576 0 0 0 
46.883 -17.054 21.908 0 0 0 
47.649 -17.058 21.373 0 0 0 
48.417 -17.063 20.767 0 0 0 
49.187 -17.071 20.101 0 0 0 
49.976 -17.081 19.271 0 0 0 
50.769 -17.09 18.417 0 0 0 
51.549 -17.096 17.866 0 0 0 
52.338 -17.103 17.117 0 0 0 
53.129 -17.111 16.365 0 0 0 
53.923 -17.118 15.564 0 0 0 
54.824 -17.149 12.466 0 0 0 
55.722 -17.199 8.884 0 0 0 
56.505 -17.228 7.758 0 0 0 
57.286 -17.258 6.819 0 0 0 
58.136 -17.364 2.733 0 0 0 
58.942 -17.434 0.732 0 0 0 
59.674 -17.399 2.228 0 0 0 
60.426 -17.375 2.863 0 0 0 
61.183 -17.357 3.288 0 0 0 
61.94 -17.341 3.663 0 0 0 
62.69 -17.32 4.273 0 0 0 
63.442 -17.301 4.809 0 0 0 
64.194 -17.284 5.316 0 0 0 
64.949 -17.275 5.607 0 0 0 
65.708 -17.269 5.746 0 0 0 
66.471 -17.267 5.727 0 0 0 
67.236 -17.267 5.634 0 0 0 
68.004 -17.267 5.475 0 0 0 
68.773 -17.267 5.307 0 0 0 
69.541 -17.264 5.176 0 0 0 
70.313 -17.256 5 0 0 0 
71.084 -17.247 4.845 0 0 0 
71.859 -17.24 4.589 0 0 0 
72.635 -17.232 4.321 0 0 0 
73.412 -17.223 4.02 0 0 0 
74.19 -17.214 3.713 0 0 0 
74.961 -17.206 3.405 0 0 0 
75.731 -17.198 2.978 0 0 0 
76.501 -17.19 2.524 0 0 0 
77.276 -17.184 1.867 0 0 0 
78.056 -17.177 1.038 0 0 0 
78.828 -17.169 0.386 0 0 0 
79.633 -17.179 -0.74 0 0 0 
80.442 -17.196 -1.638 0 0 0 
81.241 -17.209 -2.363 0 0 0 
82.07 -17.238 -3.613 0 0 0 
82.879 -17.255 -4.484 0 0 0 
83.699 -17.278 -5.56 0 0 0 
84.536 -17.31 -6.921 0 0 0 
85.355 -17.331 -7.947 0 0 0 
86.206 -17.362 -9.45 0 0 0 
87.058 -17.394 -10.797 0 0 0 
87.964 -17.46 -12.774 0 0 0 
88.891 -17.546 -14.966 0 0 0 
89.965 -17.727 -19.063 0 0 0 
90.975 -17.834 -23.206 0 0 0 
91.863 -17.864 -25.406 0 0 0 
-37.598 -17.297 -38.933 0 0 0 
-36.658 -17.268 -31.271 0 0 0 
-35.745 -17.154 -26.09 0 0 0 
-34.84 -17.02 -21.323 0 0 0 
-33.94 -16.938 -16.926 0 0 0 
-33.084 -16.9 -13.805 0 0 0 
-32.257 -16.875 -11.375 0 0 0 
-31.418 -16.843 -8.74 0 0 0 
-30.595 -16.814 -6.956 0 0 0 
-29.766 -16.781 -5.001 0 0 0 
-28.947 -16.751 -3.312 0 0 0 
-28.142 -16.728 -2.074 0 0 0 
-27.329 -16.7 -0.601 0 0 0 
-26.547 -16.676 0.613 0 0 0 
-25.774 -16.647 2.047 0 0 0 
-25.004 -16.627 3.139 0 0 0 
-24.233 -16.609 4.224 0 0 0 
-23.459 -16.59 5.438 0 0 0 
-22.691 -16.58 6.252 0 0 0 
-21.921 -16.572 7.139 0 0 0 
-21.151 -16.57 7.979 0 0 0 
-20.382 -16.573 8.647 0 0 0 
-19.609 -16.576 9.451 0 0 0 
-18.837 -16.582 10.133 0 0 0 
-18.071 -16.588 10.633 0 0 0 
-17.306 -16.596 11.022 0 0 0 
-16.541 -16.593 11.406 0 0 0 
-15.779 -16.588 11.655 0 0 0 
-15.018 -16.584 11.884 0 0 0 
-14.259 -16.578 12.207 0 0 0 
-13.501 -16.572 12.496 0 0 0 
-12.743 -16.57 12.613 0 0 0 
-11.986 -16.57 12.624 0 0 0 
-11.232 -16.566 12.572 0 0 0 
-10.474 -16.565 12.282 0 0 0 
-9.712 -16.568 11.741 0 0 0 
-8.948 -16.571 11.256 0 0 0 
-8.179 -16.575 10.649 0 0 0 
-7.415 -16.586 9.628 0 0 0 
-6.666 -16.59 8.976 0 0 0 
-5.905 -16.586 8.706 0 0 0 
-5.138 -16.577 8.703 0 0 0 
-4.368 -16.563 8.867 0 0 0 
-3.595 -16.545 9.213 0 0 0 
-2.82 -16.521 9.68 0 0 0 
-2.05 -16.505 9.842 0 0 0 
-1.295 -16.491 10.183 0 0 0 
-0.552 -16.483 10.481 0 0 0 
0.189 -16.474 10.826 0 0 0 
0.922 -16.465 11.308 0 0 0 
1.647 -16.454 11.933 0 0 0 
2.381 -16.446 12.383 0 0 0 
3.11 -16.437 12.93 0 0 0 
3.82 -16.427 13.926 0 0 0 
4.541 -16.419 14.762 0 0 0 
5.256 -16.408 15.747 0 0 0 
5.98 -16.399 16.62 0 0 0 
6.698 -16.388 17.671 0 0 0 
7.411 -16.374 18.893 0 0 0 
8.16 -16.369 19.472 0 0 0 
8.93 -16.37 19.781 0 0 0 
9.745 -16.338 21.065 0 0 0 
10.548 -16.321 21.688 0 0 0 
11.345 -16.305 22.258 0 0 0 
12.145 -16.282 23.015 0 0 0 
12.935 -16.265 23.603 0 0 0 
13.707 -16.252 23.953 0 0 0 
14.472 -16.239 24.286 0 0 0 
15.237 -16.221 24.758 0 0 0 
16 -16.203 25.229 0 0 0 
16.759 -16.186 25.691 0 0 0 
17.516 -16.169 26.149 0 0 0 
18.269 -16.156 26.504 0 0 0 
19.017 -16.137 26.963 0 0 0 
19.763 -16.124 27.249 0 0 0 
20.508 -16.112 27.506 0 0 0 
21.252 -16.095 27.887 0 0 0 
21.996 -16.082 28.157 0 0 0 
22.738 -16.073 28.329 0 0 0 
23.478 -16.061 28.576 0 0 0 
24.212 -16.05 28.83 0 0 0 
24.946 -16.044 28.973 0 0 0 
25.679 -16.037 29.133 0 0 0 
26.412 -16.03 29.279 0 0 0 
27.144 -16.025 29.392 0 0 0 
27.879 -16.024 29.384 0 0 0 
28.621 -16.027 29.427 0 0 0 
29.366 -16.031 29.541 0 0 0 
30.114 -16.039 29.55 0 0 0 
30.86 -16.044 29.639 0 0 0 
31.608 -16.052 29.613 0 0 0 
32.357 -16.06 29.592 0 0 0 
33.107 -16.07 29.518 0 0 0 
33.863 -16.08 29.47 0 0 0 
34.627 -16.098 29.11 0 0 0 
35.388 -16.112 28.876 0 0 0 
36.147 -16.125 28.71 0 0 0 
36.906 -16.137 28.518 0 0 0 
37.669 -16.151 28.21 0 0 0 
38.437 -16.17 27.711 0 0 0 
39.199 -16.186 27.461 0 0 0 
39.966 -16.204 27.001 0 0 0 
40.735 -16.224 26.442 0 0 0 
41.498 -16.239 26.064 0 0 0 
42.263 -16.255 25.596 0 0 0 
43.026 -16.269 25.182 0 0 0 
43.79 -16.276 24.731 0 0 0 
44.555 -16.279 24.287 0 0 0 
45.327 -16.287 23.501 0 0 0 
46.093 -16.291 22.985 0 0 0 
46.857 -16.295 22.531 0 0 0 
47.626 -16.301 21.854 0 0 0 
48.394 -16.306 21.226 0 0 0 
49.16 -16.31 20.766 0 0 0 
49.937 -16.32 19.91 0 0 0 
50.732 -16.328 19.044 0 0 0 
51.524 -16.334 18.252 0 0 0 
52.305 -16.338 17.724 0 0 0 
53.092 -16.343 17.072 0 0 0 
53.885 -16.348 16.287 0 0 0 
54.736 -16.367 14.292 0 0 0 
55.628 -16.399 11.433 0 0 0 
56.455 -16.421 9.94 0 0 0 
57.231 -16.443 9.204 0 0 0 
58.003 -16.463 8.629 0 0 0 
58.813 -16.528 6.4 0 0 0 
59.653 -16.616 3.013 0 0 0 
60.418 -16.607 3.071 0 0 0 
61.175 -16.589 3.477 0 0 0 
61.921 -16.563 4.268 0 0 0 
62.675 -16.545 4.734 0 0 0 
63.424 -16.525 5.341 0 0 0 
64.178 -16.51 5.755 0 0 0 
64.931 -16.5 6.117 0 0 0 
65.689 -16.496 6.234 0 0 0 
66.453 -16.495 6.194 0 0 0 
67.22 -16.497 6.023 0 0 0 
67.989 -16.498 5.82 0 0 0 
68.756 -16.499 5.662 0 0 0 
69.526 -16.497 5.464 0 0 0 
70.297 -16.489 5.304 0 0 0 
71.067 -16.481 5.169 0 0 0 
71.842 -16.473 4.933 0 0 0 
72.617 -16.465 4.67 0 0 0 
73.392 -16.456 4.423 0 0 0 
74.171 -16.448 4.081 0 0 0 
74.941 -16.44 3.787 0 0 0 
75.714 -16.433 3.311 0 0 0 
76.484 -16.425 2.864 0 0 0 
77.26 -16.418 2.209 0 0 0 
78.038 -16.411 1.445 0 0 0 
78.811 -16.403 0.771 0 0 0 
79.6 -16.401 -0.251 0 0 0 
80.409 -16.418 -1.143 0 0 0 
81.212 -16.433 -1.931 0 0 0 
82.046 -16.462 -3.232 0 0 0 
82.855 -16.48 -4.112 0 0 0 
83.672 -16.501 -5.111 0 0 0 
84.519 -16.538 -6.635 0 0 0 
85.326 -16.552 -7.446 0 0 0 
86.18 -16.584 -9.004 0 0 0 
87.05 -16.624 -10.671 0 0 0 
87.921 -16.671 -12.169 0 0 0 
88.844 -16.752 -14.343 0 0 0 
89.885 -16.911 -18.024 0 0 0 
90.945 -17.053 -22.686 0 0 0 
91.888 -17.096 -25.942 0 0 0 
-37.529 -16.506 -35.106 0 0 0 
-36.594 -16.445 -28.317 0 0 0 
-35.704 -16.335 -24.392 0 0 0 
-34.801 -16.209 -19.76 0 0 0 
-33.924 -16.158 -16.262 0 0 0 
-33.06 -16.119 -12.789 0 0 0 
-32.241 -16.099 -10.711 0 0 0 
-31.398 -16.065 -8.127 0 0 0 
-30.574 -16.036 -6.313 0 0 0 
-29.744 -16.003 -4.28 0 0 0 
-28.926 -15.975 -2.638 0 0 0 
-28.12 -15.951 -1.336 0 0 0 
-27.311 -15.924 0.066 0 0 0 
-26.541 -15.894 1.477 0 0 0 
-25.771 -15.87 2.687 0 0 0 
-25 -15.848 3.937 0 0 0 
-24.23 -15.831 4.996 0 0 0 
-23.457 -15.814 6.194 0 0 0 
-22.688 -15.804 7.071 0 0 0 
-21.917 -15.798 7.959 0 0 0 
-21.148 -15.8 8.675 0 0 0 
-20.374 -15.804 9.514 0 0 0 
-19.603 -15.809 10.243 0 0 0 
-18.837 -15.814 10.776 0 0 0 
-18.071 -15.82 11.262 0 0 0 
-17.304 -15.823 11.855 0 0 0 
-16.542 -15.823 12.099 0 0 0 
-15.781 -15.819 12.35 0 0 0 
-15.022 -15.812 12.731 0 0 0 
-14.265 -15.806 13.02 0 0 0 
-13.509 -15.8 13.361 0 0 0 
-12.754 -15.797 13.549 0 0 0 
-11.999 -15.797 13.556 0 0 0 
-11.248 -15.791 13.529 0 0 0 
-10.494 -15.788 13.367 0 0 0 
-9.737 -15.788 12.995 0 0 0 
-8.974 -15.79 12.41 0 0 0 
-8.209 -15.793 11.83 0 0 0 
-7.434 -15.8 10.925 0 0 0 
-6.66 -15.812 9.607 0 0 0 
-5.9 -15.807 9.315 0 0 0 
-5.134 -15.797 9.293 0 0 0 
-4.359 -15.776 9.737 0 0 0 
-3.588 -15.758 9.976 0 0 0 
-2.831 -15.744 10.202 0 0 0 
-2.082 -15.728 10.539 0 0 0 
-1.336 -15.718 10.817 0 0 0 
-0.587 -15.711 10.989 0 0 0 
0.153 -15.703 11.352 0 0 0 
0.879 -15.693 11.949 0 0 0 
1.612 -15.684 12.436 0 0 0 
2.343 -15.676 12.938 0 0 0 
3.062 -15.666 13.649 0 0 0 
3.789 -15.66 14.341 0 0 0 
4.504 -15.651 15.318 0 0 0 
5.231 -15.643 16.098 0 0 0 
5.96 -15.636 16.889 0 0 0 
6.681 -15.626 17.896 0 0 0 
7.409 -15.617 18.809 0 0 0 
8.154 -15.611 19.494 0 0 0 
8.92 -15.607 20.11 0 0 0 
9.742 -15.579 21.131 0 0 0 
10.54 -15.566 21.658 0 0 0 
11.342 -15.546 22.367 0 0 0 
12.134 -15.531 22.921 0 0 0 
12.926 -15.513 23.541 0 0 0 
13.699 -15.499 23.956 0 0 0 
14.464 -15.485 24.311 0 0 0 
15.231 -15.463 24.917 0 0 0 
15.991 -15.45 25.285 0 0 0 
16.751 -15.429 25.859 0 0 0 
17.505 -15.418 26.162 0 0 0 
18.259 -15.404 26.528 0 0 0 
19.007 -15.384 27.043 0 0 0 
19.753 -15.372 27.269 0 0 0 
20.499 -15.36 27.509 0 0 0 
21.244 -15.34 27.981 0 0 0 
21.988 -15.328 28.181 0 0 0 
22.732 -15.318 28.34 0 0 0 
23.472 -15.303 28.656 0 0 0 
24.207 -15.293 28.885 0 0 0 
24.942 -15.288 29.008 0 0 0 
25.675 -15.28 29.171 0 0 0 
26.409 -15.277 29.234 0 0 0 
27.142 -15.273 29.323 0 0 0 
27.878 -15.272 29.292 0 0 0 
28.621 -15.277 29.295 0 0 0 
29.369 -15.283 29.329 0 0 0 
30.115 -15.288 29.405 0 0 0 
30.861 -15.294 29.451 0 0 0 
31.611 -15.303 29.404 0 0 0 
32.363 -15.314 29.258 0 0 0 
33.114 -15.325 29.154 0 0 0 
33.869 -15.334 29.105 0 0 0 
34.627 -15.346 28.957 0 0 0 
35.384 -15.358 28.834 0 0 0 
36.141 -15.368 28.746 0 0 0 
36.899 -15.38 28.556 0 0 0 
37.66 -15.394 28.297 0 0 0 
38.422 -15.408 28.002 0 0 0 
39.189 -15.428 27.587 0 0 0 
39.952 -15.444 27.25 0 0 0 
40.72 -15.464 26.739 0 0 0 
41.483 -15.48 26.352 0 0 0 
42.248 -15.496 25.89 0 0 0 
43.013 -15.511 25.402 0 0 0 
43.774 -15.517 25.08 0 0 0 
44.539 -15.522 24.561 0 0 0 
45.305 -15.527 24.049 0 0 0 
46.073 -15.533 23.411 0 0 0 
46.836 -15.536 22.995 0 0 0 
47.608 -15.544 22.166 0 0 0 
48.371 -15.548 21.727 0 0 0 
49.142 -15.554 21.049 0 0 0 
49.914 -15.56 20.39 0 0 0 
50.703 -15.568 19.493 0 0 0 
51.498 -15.573 18.678 0 0 0 
52.293 -15.577 17.854 0 0 0 
53.077 -15.58 17.292 0 0 0 
53.863 -15.582 16.697 0 0 0 
54.711 -15.599 14.745 0 0 0 
55.556 -15.619 12.891 0 0 0 
56.4 -15.642 11.073 0 0 0 
57.211 -15.661 9.946 0 0 0 
57.99 -15.688 9.075 0 0 0 
58.764 -15.711 8.451 0 0 0 
59.567 -15.759 6.632 0 0 0 
60.377 -15.803 4.665 0 0 0 
61.144 -15.799 4.574 0 0 0 
61.901 -15.783 4.936 0 0 0 
62.65 -15.762 5.56 0 0 0 
63.405 -15.747 5.943 0 0 0 
64.16 -15.733 6.305 0 0 0 
64.916 -15.728 6.511 0 0 0 
65.673 -15.723 6.672 0 0 0 
66.437 -15.725 6.575 0 0 0 
67.201 -15.725 6.496 0 0 0 
67.968 -15.727 6.323 0 0 0 
68.737 -15.73 6.106 0 0 0 
69.507 -15.729 5.88 0 0 0 
70.276 -15.72 5.779 0 0 0 
71.048 -15.713 5.569 0 0 0 
71.825 -15.707 5.258 0 0 0 
72.597 -15.698 5.087 0 0 0 
73.373 -15.69 4.808 0 0 0 
74.151 -15.682 4.493 0 0 0 
74.922 -15.674 4.167 0 0 0 
75.69 -15.666 3.833 0 0 0 
76.467 -15.659 3.204 0 0 0 
77.239 -15.652 2.678 0 0 0 
78.018 -15.645 1.908 0 0 0 
78.793 -15.637 1.192 0 0 0 
79.576 -15.629 0.168 0 0 0 
80.378 -15.641 -0.683 0 0 0 
81.186 -15.657 -1.534 0 0 0 
82.015 -15.684 -2.744 0 0 0 
82.832 -15.705 -3.744 0 0 0 
83.646 -15.725 -4.7 0 0 0 
84.489 -15.758 -6.126 0 0 0 
85.315 -15.782 -7.247 0 0 0 
86.151 -15.806 -8.506 0 0 0 
87.029 -15.849 -10.356 0 0 0 
87.892 -15.89 -11.767 0 0 0 
88.811 -15.967 -13.894 0 0 0 
89.823 -16.107 -17.219 0 0 0 
90.927 -16.275 -22.396 0 0 0 
91.906 -16.325 -26.342 0 0 0 
-37.395 -15.684 -28.518 0 0 0 
-36.538 -15.613 -26.088 0 0 0 
-35.671 -15.528 -23.096 0 0 0 
-34.776 -15.424 -18.857 0 0 0 
-33.904 -15.378 -15.506 0 0 0 
-33.05 -15.344 -12.389 0 0 0 
-32.224 -15.324 -10.031 0 0 0 
-31.381 -15.289 -7.585 0 0 0 
-30.559 -15.262 -5.822 0 0 0 
-29.728 -15.229 -3.745 0 0 0 
-28.904 -15.198 -1.9 0 0 0 
-28.098 -15.174 -0.593 0 0 0 
-27.307 -15.148 0.649 0 0 0 
-26.535 -15.115 2.24 0 0 0 
-25.765 -15.09 3.56 0 0 0 
-24.999 -15.075 4.464 0 0 0 
-24.225 -15.055 5.816 0 0 0 
-23.454 -15.041 6.939 0 0 0 
-22.684 -15.032 7.855 0 0 0 
-21.914 -15.028 8.723 0 0 0 
-21.14 -15.031 9.595 0 0 0 
-20.37 -15.036 10.288 0 0 0 
-19.603 -15.04 10.9 0 0 0 
-18.837 -15.043 11.506 0 0 0 
-18.069 -15.046 12.14 0 0 0 
-17.304 -15.054 12.486 0 0 0 
-16.542 -15.051 12.917 0 0 0 
-15.783 -15.046 13.219 0 0 0 
-15.026 -15.037 13.679 0 0 0 
-14.271 -15.032 13.973 0 0 0 
-13.518 -15.027 14.264 0 0 0 
-12.765 -15.024 14.443 0 0 0 
-12.013 -15.024 14.494 0 0 0 
-11.263 -15.018 14.437 0 0 0 
-10.514 -15.012 14.395 0 0 0 
-9.76 -15.01 14.067 0 0 0 
-9.001 -15.011 13.51 0 0 0 
-8.242 -15.01 13.101 0 0 0 
-7.473 -15.013 12.375 0 0 0 
-6.692 -15.02 11.303 0 0 0 
-5.904 -15.022 10.35 0 0 0 
-5.135 -15.012 10.22 0 0 0 
-4.376 -14.999 10.386 0 0 0 
-3.623 -14.984 10.661 0 0 0 
-2.878 -14.968 11.045 0 0 0 
-2.133 -14.953 11.38 0 0 0 
-1.388 -14.943 11.649 0 0 0 
-0.641 -14.937 11.85 0 0 0 
0.102 -14.93 12.145 0 0 0 
0.84 -14.923 12.521 0 0 0 
1.565 -14.913 13.143 0 0 0 
2.297 -14.906 13.61 0 0 0 
3.028 -14.898 14.101 0 0 0 
3.754 -14.892 14.836 0 0 0 
4.475 -14.885 15.703 0 0 0 
5.215 -14.88 16.259 0 0 0 
5.941 -14.873 17.145 0 0 0 
6.668 -14.865 18.039 0 0 0 
7.402 -14.858 18.858 0 0 0 
8.149 -14.853 19.491 0 0 0 
8.921 -14.846 20.238 0 0 0 
9.733 -14.825 21.055 0 0 0 
10.533 -14.811 21.615 0 0 0 
11.333 -14.793 22.303 0 0 0 
12.127 -14.777 22.91 0 0 0 
12.915 -14.762 23.456 0 0 0 
13.689 -14.747 23.886 0 0 0 
14.455 -14.732 24.325 0 0 0 
15.222 -14.709 24.978 0 0 0 
15.981 -14.697 25.289 0 0 0 
16.74 -14.678 25.837 0 0 0 
17.495 -14.668 26.131 0 0 0 
18.248 -14.655 26.493 0 0 0 
18.996 -14.639 26.851 0 0 0 
19.743 -14.622 27.228 0 0 0 
20.49 -14.609 27.485 0 0 0 
21.236 -14.589 27.915 0 0 0 
21.981 -14.577 28.117 0 0 0 
22.727 -14.567 28.253 0 0 0 
23.468 -14.551 28.568 0 0 0 
24.204 -14.543 28.76 0 0 0 
24.939 -14.538 28.86 0 0 0 
25.673 -14.53 29.045 0 0 0 
26.408 -14.527 29.086 0 0 0 
27.143 -14.525 29.085 0 0 0 
27.88 -14.526 29.014 0 0 0 
28.624 -14.531 29.013 0 0 0 
29.375 -14.54 28.933 0 0 0 
30.122 -14.546 28.97 0 0 0 
30.869 -14.552 29.025 0 0 0 
31.618 -14.56 28.981 0 0 0 
32.369 -14.57 28.884 0 0 0 
33.118 -14.577 28.867 0 0 0 
33.872 -14.586 28.842 0 0 0 
34.628 -14.596 28.754 0 0 0 
35.385 -14.607 28.642 0 0 0 
36.139 -14.615 28.614 0 0 0 
36.9 -14.629 28.344 0 0 0 
37.657 -14.639 28.209 0 0 0 
38.416 -14.653 27.994 0 0 0 
39.181 -14.671 27.617 0 0 0 
39.945 -14.689 27.258 0 0 0 
40.711 -14.707 26.811 0 0 0 
41.473 -14.723 26.453 0 0 0 
42.238 -14.739 26 0 0 0 
43.001 -14.755 25.555 0 0 0 
43.763 -14.762 25.169 0 0 0 
44.525 -14.765 24.807 0 0 0 
45.292 -14.771 24.191 0 0 0 
46.057 -14.776 23.672 0 0 0 
46.82 -14.78 23.252 0 0 0 
47.59 -14.788 22.484 0 0 0 
48.356 -14.793 21.911 0 0 0 
49.124 -14.797 21.353 0 0 0 
49.899 -14.803 20.592 0 0 0 
50.688 -14.811 19.618 0 0 0 
51.475 -14.812 19.006 0 0 0 
52.28 -14.816 18.02 0 0 0 
53.076 -14.819 17.211 0 0 0 
53.872 -14.822 16.404 0 0 0 
54.702 -14.835 14.845 0 0 0 
55.524 -14.849 13.488 0 0 0 
56.343 -14.865 12.207 0 0 0 
57.166 -14.884 10.861 0 0 0 
57.974 -14.909 9.632 0 0 0 
58.752 -14.936 8.833 0 0 0 
59.531 -14.958 8.028 0 0 0 
60.322 -14.983 6.849 0 0 0 
61.099 -14.991 6.314 0 0 0 
61.863 -14.986 6.299 0 0 0 
62.623 -14.976 6.494 0 0 0 
63.382 -14.966 6.664 0 0 0 
64.138 -14.954 6.964 0 0 0 
64.892 -14.948 7.231 0 0 0 
65.649 -14.946 7.355 0 0 0 
66.411 -14.947 7.321 0 0 0 
67.178 -14.951 7.095 0 0 0 
67.946 -14.955 6.881 0 0 0 
68.713 -14.958 6.688 0 0 0 
69.483 -14.958 6.455 0 0 0 
70.256 -14.953 6.194 0 0 0 
71.025 -14.944 6.077 0 0 0 
71.798 -14.937 5.859 0 0 0 
72.578 -14.932 5.459 0 0 0 
73.35 -14.923 5.273 0 0 0 
74.127 -14.915 4.98 0 0 0 
74.899 -14.908 4.639 0 0 0 
75.672 -14.9 4.195 0 0 0 
76.443 -14.893 3.752 0 0 0 
77.222 -14.886 3.044 0 0 0 
77.996 -14.879 2.432 0 0 0 
78.774 -14.871 1.627 0 0 0 
79.557 -14.863 0.64 0 0 0 
80.346 -14.863 -0.19 0 0 0 
81.16 -14.882 -1.147 0 0 0 
81.976 -14.902 -2.136 0 0 0 
82.807 -14.929 -3.357 0 0 0 
83.621 -14.948 -4.293 0 0 0 
84.461 -14.98 -5.646 0 0 0 
85.291 -15.006 -6.846 0 0 0 
86.125 -15.029 -8.074 0 0 0 
86.998 -15.069 -9.875 0 0 0 
87.872 -15.114 -11.476 0 0 0 
88.784 -15.186 -13.536 0 0 0 
89.762 -15.304 -16.409 0 0 0 
90.882 -15.491 -21.604 0 0 0 
91.846 -15.535 -25.272 0 0 0 
93.218 -15.663 -35.876 0 0 0 
-37.363 -14.876 -27.2 0 0 0 
-36.504 -14.805 -24.764 0 0 0 
-35.636 -14.719 -21.73 0 0 0 
-34.752 -14.64 -18.005 0 0 0 
-33.877 -14.595 -14.448 0 0 0 
-33.042 -14.571 -12.067 0 0 0 
-32.198 -14.544 -9.211 0 0 0 
-31.36 -14.511 -6.925 0 0 0 
-30.537 -14.484 -5.112 0 0 0 
-29.699 -14.449 -2.799 0 0 0 
-28.885 -14.423 -1.24 0 0 0 
-28.079 -14.397 0.18 0 0 0 
-27.298 -14.368 1.538 0 0 0 
-26.528 -14.337 3.064 0 0 0 
-25.762 -14.317 4.16 0 0 0 
-24.992 -14.298 5.38 0 0 0 
-24.219 -14.28 6.69 0 0 0 
-23.451 -14.271 7.628 0 0 0 
-22.679 -14.262 8.675 0 0 0 
-21.909 -14.261 9.455 0 0 0 
-21.138 -14.266 10.221 0 0 0 
-20.371 -14.267 10.956 0 0 0 
-19.604 -14.27 11.57 0 0 0 
-18.837 -14.273 12.218 0 0 0 
-18.071 -14.278 12.719 0 0 0 
-17.303 -14.28 13.372 0 0 0 
-16.542 -14.277 13.781 0 0 0 
-15.786 -14.272 14.065 0 0 0 
-15.031 -14.265 14.501 0 0 0 
-14.278 -14.258 14.877 0 0 0 
-13.527 -14.254 15.115 0 0 0 
-12.777 -14.252 15.303 0 0 0 
-12.027 -14.251 15.373 0 0 0 
-11.28 -14.243 15.401 0 0 0 
-10.533 -14.237 15.347 0 0 0 
-9.787 -14.229 15.347 0 0 0 
-9.035 -14.226 15.054 0 0 0 
-8.277 -14.227 14.479 0 0 0 
-7.516 -14.227 13.919 0 0 0 
-6.748 -14.228 13.227 0 0 0 
-5.968 -14.231 12.272 0 0 0 
-5.189 -14.229 11.571 0 0 0 
-4.418 -14.222 11.28 0 0 0 
-3.665 -14.208 11.454 0 0 0 
-2.923 -14.193 11.84 0 0 0 
-2.177 -14.18 12.083 0 0 0 
-1.427 -14.172 12.223 0 0 0 
-0.682 -14.166 12.468 0 0 0 
0.057 -14.159 12.825 0 0 0 
0.794 -14.152 13.204 0 0 0 
1.525 -14.144 13.711 0 0 0 
2.263 -14.138 14.064 0 0 0 
2.986 -14.13 14.69 0 0 0 
3.723 -14.126 15.236 0 0 0 
4.456 -14.121 15.912 0 0 0 
5.193 -14.117 16.544 0 0 0 
5.921 -14.11 17.391 0 0 0 
6.656 -14.104 18.165 0 0 0 
7.392 -14.098 18.956 0 0 0 
8.144 -14.095 19.504 0 0 0 
8.914 -14.089 20.208 0 0 0 
9.728 -14.068 21.067 0 0 0 
10.526 -14.056 21.613 0 0 0 
11.322 -14.042 22.186 0 0 0 
12.118 -14.023 22.881 0 0 0 
12.905 -14.01 23.375 0 0 0 
13.677 -13.999 23.728 0 0 0 
14.445 -13.981 24.236 0 0 0 
15.212 -13.959 24.9 0 0 0 
15.971 -13.947 25.222 0 0 0 
16.729 -13.931 25.707 0 0 0 
17.484 -13.921 25.991 0 0 0 
18.237 -13.909 26.311 0 0 0 
18.985 -13.894 26.661 0 0 0 
19.733 -13.879 26.962 0 0 0 
20.481 -13.862 27.333 0 0 0 
21.228 -13.844 27.693 0 0 0 
21.975 -13.83 27.944 0 0 0 
22.721 -13.817 28.136 0 0 0 
23.464 -13.804 28.359 0 0 0 
24.201 -13.795 28.571 0 0 0 
24.937 -13.79 28.643 0 0 0 
25.672 -13.784 28.766 0 0 0 
26.408 -13.782 28.789 0 0 0 
27.145 -13.782 28.742 0 0 0 
27.884 -13.783 28.648 0 0 0 
28.629 -13.789 28.604 0 0 0 
29.38 -13.798 28.514 0 0 0 
30.129 -13.806 28.476 0 0 0 
30.878 -13.813 28.472 0 0 0 
31.627 -13.82 28.458 0 0 0 
32.376 -13.827 28.451 0 0 0 
33.126 -13.836 28.373 0 0 0 
33.88 -13.843 28.363 0 0 0 
34.633 -13.851 28.362 0 0 0 
35.388 -13.86 28.294 0 0 0 
36.143 -13.868 28.24 0 0 0 
36.9 -13.879 28.086 0 0 0 
37.655 -13.887 28.019 0 0 0 
38.416 -13.902 27.741 0 0 0 
39.179 -13.919 27.432 0 0 0 
39.941 -13.935 27.15 0 0 0 
40.706 -13.954 26.716 0 0 0 
41.468 -13.97 26.344 0 0 0 
42.231 -13.986 25.923 0 0 0 
42.994 -14.001 25.493 0 0 0 
43.755 -14.008 25.158 0 0 0 
44.518 -14.012 24.692 0 0 0 
45.282 -14.018 24.19 0 0 0 
46.046 -14.022 23.716 0 0 0 
46.809 -14.027 23.254 0 0 0 
47.578 -14.035 22.514 0 0 0 
48.343 -14.04 21.942 0 0 0 
49.111 -14.043 21.445 0 0 0 
49.889 -14.05 20.567 0 0 0 
50.676 -14.055 19.697 0 0 0 
51.464 -14.054 19.091 0 0 0 
52.27 -14.056 18.108 0 0 0 
53.076 -14.058 17.115 0 0 0 
53.873 -14.06 16.295 0 0 0 
54.692 -14.07 14.974 0 0 0 
55.501 -14.081 13.9 0 0 0 
56.311 -14.094 12.807 0 0 0 
57.125 -14.11 11.645 0 0 0 
57.94 -14.129 10.474 0 0 0 
58.732 -14.153 9.538 0 0 0 
59.513 -14.176 8.666 0 0 0 
60.291 -14.188 8.025 0 0 0 
61.069 -14.199 7.415 0 0 0 
61.84 -14.202 7.111 0 0 0 
62.604 -14.197 7.086 0 0 0 
63.361 -14.186 7.33 0 0 0 
64.119 -14.176 7.541 0 0 0 
64.876 -14.174 7.669 0 0 0 
65.634 -14.174 7.74 0 0 0 
66.395 -14.176 7.703 0 0 0 
67.157 -14.179 7.63 0 0 0 
67.922 -14.183 7.467 0 0 0 
68.688 -14.187 7.287 0 0 0 
69.454 -14.186 7.163 0 0 0 
70.226 -14.181 6.927 0 0 0 
71 -14.175 6.659 0 0 0 
71.772 -14.168 6.457 0 0 0 
72.545 -14.162 6.22 0 0 0 
73.33 -14.157 5.676 0 0 0 
74.104 -14.149 5.449 0 0 0 
74.877 -14.142 5.107 0 0 0 
75.648 -14.134 4.693 0 0 0 
76.423 -14.127 4.167 0 0 0 
77.2 -14.121 3.517 0 0 0 
77.974 -14.113 2.951 0 0 0 
78.756 -14.106 2.043 0 0 0 
79.536 -14.097 1.171 0 0 0 
80.322 -14.093 0.297 0 0 0 
81.121 -14.101 -0.541 0 0 0 
81.951 -14.127 -1.745 0 0 0 
82.782 -14.153 -2.959 0 0 0 
83.593 -14.17 -3.831 0 0 0 
84.436 -14.203 -5.229 0 0 0 
85.26 -14.225 -6.303 0 0 0 
86.102 -14.253 -7.681 0 0 0 
86.968 -14.29 -9.374 0 0 0 
87.851 -14.337 -11.163 0 0 0 
88.74 -14.395 -12.916 0 0 0 
89.692 -14.497 -15.481 0 0 0 
90.819 -14.704 -20.445 0 0 0 
91.761 -14.742 -23.727 0 0 0 
92.606 -14.744 -25.044 0 0 0 
-38.259 -14.178 -30.622 0 0 0 
-37.344 -14.082 -26.426 0 0 0 
-36.495 -14.021 -24.378 0 0 0 
-35.618 -13.928 -21.029 0 0 0 
-34.73 -13.858 -17.215 0 0 0 
-33.861 -13.817 -13.824 0 0 0 
-33.025 -13.795 -11.404 0 0 0 
-32.174 -13.765 -8.47 0 0 0 
-31.341 -13.735 -6.303 0 0 0 
-30.506 -13.703 -4.088 0 0 0 
-29.678 -13.673 -2.062 0 0 0 
-28.861 -13.646 -0.417 0 0 0 
-28.074 -13.62 0.872 0 0 0 
-27.288 -13.587 2.522 0 0 0 
-26.524 -13.565 3.622 0 0 0 
-25.753 -13.54 5.13 0 0 0 
-24.988 -13.526 6.054 0 0 0 
-24.214 -13.509 7.457 0 0 0 
-23.446 -13.502 8.327 0 0 0 
-22.675 -13.496 9.34 0 0 0 
-21.906 -13.496 10.169 0 0 0 
-21.138 -13.495 10.991 0 0 0 
-20.372 -13.498 11.602 0 0 0 
-19.604 -13.497 12.394 0 0 0 
-18.838 -13.502 12.903 0 0 0 
-18.069 -13.502 13.673 0 0 0 
-17.303 -13.508 14.122 0 0 0 
-16.544 -13.506 14.515 0 0 0 
-15.789 -13.498 14.949 0 0 0 
-15.036 -13.49 15.38 0 0 0 
-14.286 -13.486 15.675 0 0 0 
-13.537 -13.481 16.001 0 0 0 
-12.789 -13.478 16.202 0 0 0 
-12.041 -13.478 16.251 0 0 0 
-11.296 -13.471 16.201 0 0 0 
-10.554 -13.461 16.335 0 0 0 
-9.81 -13.453 16.335 0 0 0 
-9.065 -13.446 16.261 0 0 0 
-8.316 -13.442 16.031 0 0 0 
-7.557 -13.443 15.388 0 0 0 
-6.797 -13.442 14.785 0 0 0 
-6.035 -13.44 14.232 0 0 0 
-5.264 -13.439 13.544 0 0 0 
-4.491 -13.436 12.978 0 0 0 
-3.731 -13.428 12.808 0 0 0 
-2.971 -13.419 12.686 0 0 0 
-2.218 -13.409 12.7 0 0 0 
-1.47 -13.401 12.875 0 0 0 
-0.723 -13.396 13.065 0 0 0 
0.014 -13.388 13.459 0 0 0 
0.754 -13.382 13.778 0 0 0 
1.491 -13.376 14.159 0 0 0 
2.221 -13.369 14.652 0 0 0 
2.956 -13.363 15.05 0 0 0 
3.698 -13.361 15.529 0 0 0 
4.433 -13.357 16.185 0 0 0 
5.17 -13.353 16.849 0 0 0 
5.908 -13.349 17.525 0 0 0 
6.644 -13.344 18.281 0 0 0 
7.378 -13.339 19.132 0 0 0 
8.138 -13.337 19.54 0 0 0 
8.912 -13.331 20.267 0 0 0 
9.725 -13.31 21.15 0 0 0 
10.522 -13.298 21.671 0 0 0 
11.315 -13.287 22.154 0 0 0 
12.109 -13.27 22.824 0 0 0 
12.896 -13.259 23.288 0 0 0 
13.668 -13.248 23.644 0 0 0 
14.435 -13.23 24.171 0 0 0 
15.2 -13.212 24.718 0 0 0 
15.96 -13.199 25.092 0 0 0 
16.718 -13.186 25.475 0 0 0 
17.473 -13.173 25.865 0 0 0 
18.226 -13.165 26.099 0 0 0 
18.975 -13.148 26.492 0 0 0 
19.723 -13.136 26.711 0 0 0 
20.472 -13.117 27.108 0 0 0 
21.22 -13.101 27.427 0 0 0 
21.968 -13.084 27.708 0 0 0 
22.715 -13.07 27.936 0 0 0 
23.46 -13.056 28.158 0 0 0 
24.197 -13.051 28.268 0 0 0 
24.934 -13.042 28.462 0 0 0 
25.67 -13.036 28.586 0 0 0 
26.406 -13.034 28.594 0 0 0 
27.145 -13.035 28.516 0 0 0 
27.883 -13.036 28.438 0 0 0 
28.629 -13.04 28.404 0 0 0 
29.379 -13.05 28.325 0 0 0 
30.13 -13.059 28.228 0 0 0 
30.88 -13.067 28.18 0 0 0 
31.629 -13.074 28.148 0 0 0 
32.379 -13.082 28.102 0 0 0 
33.128 -13.089 28.086 0 0 0 
33.882 -13.096 28.069 0 0 0 
34.634 -13.102 28.096 0 0 0 
35.389 -13.111 28.034 0 0 0 
36.143 -13.118 28.018 0 0 0 
36.899 -13.128 27.883 0 0 0 
37.656 -13.137 27.753 0 0 0 
38.417 -13.152 27.468 0 0 0 
39.176 -13.167 27.276 0 0 0 
39.938 -13.183 26.966 0 0 0 
40.704 -13.203 26.461 0 0 0 
41.464 -13.217 26.19 0 0 0 
42.226 -13.234 25.785 0 0 0 
42.989 -13.25 25.305 0 0 0 
43.749 -13.256 24.996 0 0 0 
44.513 -13.261 24.505 0 0 0 
45.275 -13.265 24.091 0 0 0 
46.039 -13.271 23.54 0 0 0 
46.802 -13.276 23.098 0 0 0 
47.57 -13.284 22.36 0 0 0 
48.334 -13.29 21.8 0 0 0 
49.102 -13.291 21.327 0 0 0 
49.88 -13.297 20.504 0 0 0 
50.668 -13.299 19.667 0 0 0 
51.458 -13.297 19.05 0 0 0 
52.262 -13.296 18.144 0 0 0 
53.068 -13.296 17.183 0 0 0 
53.868 -13.297 16.324 0 0 0 
54.677 -13.305 15.228 0 0 0 
55.481 -13.314 14.232 0 0 0 
56.292 -13.327 13.126 0 0 0 
57.1 -13.34 12.097 0 0 0 
57.91 -13.357 11.019 0 0 0 
58.708 -13.372 10.224 0 0 0 
59.49 -13.387 9.535 0 0 0 
60.273 -13.408 8.62 0 0 0 
61.044 -13.412 8.293 0 0 0 
61.81 -13.411 8.151 0 0 0 
62.576 -13.409 8.052 0 0 0 
63.337 -13.403 8.11 0 0 0 
64.097 -13.395 8.222 0 0 0 
64.85 -13.393 8.443 0 0 0 
65.609 -13.395 8.474 0 0 0 
66.37 -13.399 8.393 0 0 0 
67.13 -13.403 8.354 0 0 0 
67.896 -13.409 8.167 0 0 0 
68.66 -13.413 8.017 0 0 0 
69.427 -13.415 7.809 0 0 0 
70.199 -13.41 7.571 0 0 0 
70.969 -13.404 7.389 0 0 0 
71.746 -13.4 7.047 0 0 0 
72.52 -13.394 6.77 0 0 0 
73.294 -13.387 6.519 0 0 0 
74.078 -13.382 5.999 0 0 0 
74.849 -13.375 5.715 0 0 0 
75.622 -13.368 5.278 0 0 0 
76.398 -13.361 4.745 0 0 0 
77.176 -13.355 4.085 0 0 0 
77.953 -13.347 3.434 0 0 0 
78.73 -13.339 2.728 0 0 0 
79.516 -13.332 1.659 0 0 0 
80.3 -13.327 0.869 0 0 0 
81.085 -13.321 0.046 0 0 0 
81.919 -13.348 -1.251 0 0 0 
82.745 -13.372 -2.37 0 0 0 
83.565 -13.393 -3.38 0 0 0 
84.401 -13.421 -4.639 0 0 0 
85.242 -13.452 -5.997 0 0 0 
86.069 -13.472 -7.132 0 0 0 
86.944 -13.514 -8.983 0 0 0 
87.817 -13.554 -10.66 0 0 0 
88.695 -13.605 -12.287 0 0 0 
89.645 -13.703 -14.848 0 0 0 
90.735 -13.893 -19.222 0 0 0 
91.718 -13.96 -22.993 0 0 0 
92.532 -13.957 -23.782 0 0 0 
-38.274 -13.4 -31.001 0 0 0 
-37.35 -13.309 -26.514 0 0 0 
-36.485 -13.237 -24.004 0 0 0 
-35.592 -13.131 -20.075 0 0 0 
-34.707 -13.075 -16.352 0 0 0 
-33.837 -13.036 -12.901 0 0 0 
-32.998 -13.017 -10.366 0 0 0 
-32.156 -12.989 -7.887 0 0 0 
-31.319 -12.959 -5.585 0 0 0 
-30.477 -12.924 -3.125 0 0 0 
-29.657 -12.897 -1.336 0 0 0 
-28.848 -12.871 0.236 0 0 0 
-28.064 -12.838 1.895 0 0 0 
-27.282 -12.813 3.237 0 0 0 
-26.515 -12.788 4.606 0 0 0 
-25.749 -12.769 5.757 0 0 0 
-24.978 -12.753 7.049 0 0 0 
-24.21 -12.743 8.044 0 0 0 
-23.44 -12.736 9.115 0 0 0 
-22.67 -12.731 10.087 0 0 0 
-21.906 -12.725 10.912 0 0 0 
-21.139 -12.724 11.725 0 0 0 
-20.371 -12.722 12.546 0 0 0 
-19.604 -12.725 13.184 0 0 0 
-18.837 -12.726 13.855 0 0 0 
-18.069 -12.728 14.516 0 0 0 
-17.304 -12.734 14.943 0 0 0 
-16.545 -12.731 15.411 0 0 0 
-15.793 -12.724 15.785 0 0 0 
-15.042 -12.716 16.258 0 0 0 
-14.294 -12.709 16.66 0 0 0 
-13.547 -12.703 17.082 0 0 0 
-12.802 -12.702 17.214 0 0 0 
-12.057 -12.7 17.378 0 0 0 
-11.317 -12.691 17.434 0 0 0 
-10.576 -12.683 17.454 0 0 0 
-9.836 -12.675 17.493 0 0 0 
-9.095 -12.667 17.477 0 0 0 
-8.352 -12.661 17.356 0 0 0 
-7.601 -12.659 16.911 0 0 0 
-6.847 -12.658 16.368 0 0 0 
-6.087 -12.659 15.676 0 0 0 
-5.325 -12.657 15.076 0 0 0 
-4.56 -12.654 14.529 0 0 0 
-3.786 -12.652 13.897 0 0 0 
-3.03 -12.644 13.741 0 0 0 
-2.274 -12.635 13.628 0 0 0 
-1.522 -12.629 13.678 0 0 0 
-0.766 -12.625 13.715 0 0 0 
-0.021 -12.62 13.932 0 0 0 
0.717 -12.614 14.283 0 0 0 
1.448 -12.607 14.769 0 0 0 
2.185 -12.602 15.131 0 0 0 
2.923 -12.597 15.463 0 0 0 
3.667 -12.595 15.938 0 0 0 
4.401 -12.592 16.627 0 0 0 
5.148 -12.59 17.118 0 0 0 
5.893 -12.588 17.68 0 0 0 
6.632 -12.584 18.403 0 0 0 
7.37 -12.58 19.196 0 0 0 
8.127 -12.578 19.674 0 0 0 
8.904 -12.575 20.206 0 0 0 
9.72 -12.552 21.182 0 0 0 
10.515 -12.543 21.646 0 0 0 
11.308 -12.533 22.139 0 0 0 
12.098 -12.52 22.678 0 0 0 
12.887 -12.506 23.249 0 0 0 
13.658 -12.497 23.554 0 0 0 
14.425 -12.481 24.034 0 0 0 
15.189 -12.464 24.56 0 0 0 
15.95 -12.45 25.001 0 0 0 
16.707 -12.44 25.289 0 0 0 
17.463 -12.426 25.718 0 0 0 
18.216 -12.416 26.01 0 0 0 
18.965 -12.404 26.253 0 0 0 
19.714 -12.387 26.61 0 0 0 
20.462 -12.372 26.893 0 0 0 
21.211 -12.354 27.237 0 0 0 
21.96 -12.338 27.497 0 0 0 
22.709 -12.322 27.756 0 0 0 
23.455 -12.308 27.998 0 0 0 
24.193 -12.299 28.18 0 0 0 
24.93 -12.291 28.346 0 0 0 
25.665 -12.282 28.568 0 0 0 
26.402 -12.28 28.569 0 0 0 
27.14 -12.281 28.489 0 0 0 
27.879 -12.282 28.406 0 0 0 
28.625 -12.288 28.329 0 0 0 
29.377 -12.299 28.19 0 0 0 
30.126 -12.306 28.182 0 0 0 
30.874 -12.311 28.208 0 0 0 
31.624 -12.32 28.135 0 0 0 
32.375 -12.33 28.024 0 0 0 
33.125 -12.337 27.979 0 0 0 
33.88 -12.346 27.892 0 0 0 
34.635 -12.354 27.822 0 0 0 
35.39 -12.363 27.735 0 0 0 
36.143 -12.369 27.756 0 0 0 
36.898 -12.377 27.661 0 0 0 
37.657 -12.389 27.448 0 0 0 
38.415 -12.401 27.234 0 0 0 
39.172 -12.414 27.154 0 0 0 
39.939 -12.435 26.61 0 0 0 
40.7 -12.451 26.286 0 0 0 
41.459 -12.465 26.051 0 0 0 
42.223 -12.483 25.516 0 0 0 
42.984 -12.499 25.088 0 0 0 
43.744 -12.506 24.744 0 0 0 
44.506 -12.51 24.324 0 0 0 
45.27 -12.516 23.834 0 0 0 
46.034 -12.522 23.284 0 0 0 
46.793 -12.525 22.972 0 0 0 
47.563 -12.536 22.105 0 0 0 
48.325 -12.54 21.637 0 0 0 
49.093 -12.54 21.217 0 0 0 
49.872 -12.544 20.376 0 0 0 
50.66 -12.543 19.65 0 0 0 
51.448 -12.539 19.12 0 0 0 
52.255 -12.537 18.161 0 0 0 
53.059 -12.534 17.286 0 0 0 
53.853 -12.533 16.571 0 0 0 
54.66 -12.54 15.513 0 0 0 
55.465 -12.548 14.497 0 0 0 
56.268 -12.558 13.554 0 0 0 
57.073 -12.571 12.583 0 0 0 
57.884 -12.586 11.493 0 0 0 
58.68 -12.6 10.722 0 0 0 
59.468 -12.607 10.16 0 0 0 
60.248 -12.618 9.532 0 0 0 
61.021 -12.626 9.093 0 0 0 
61.788 -12.626 8.924 0 0 0 
62.551 -12.623 8.9 0 0 0 
63.312 -12.617 8.949 0 0 0 
64.073 -12.612 9.006 0 0 0 
64.83 -12.615 9.055 0 0 0 
65.585 -12.617 9.139 0 0 0 
66.344 -12.622 9.133 0 0 0 
67.104 -12.627 9.083 0 0 0 
67.866 -12.633 8.937 0 0 0 
68.627 -12.639 8.863 0 0 0 
69.394 -12.642 8.662 0 0 0 
70.162 -12.637 8.512 0 0 0 
70.934 -12.633 8.254 0 0 0 
71.705 -12.627 8.053 0 0 0 
72.479 -12.622 7.765 0 0 0 
73.259 -12.618 7.324 0 0 0 
74.037 -12.613 6.947 0 0 0 
74.815 -12.607 6.493 0 0 0 
75.589 -12.601 6.056 0 0 0 
76.368 -12.595 5.432 0 0 0 
77.149 -12.589 4.73 0 0 0 
77.926 -12.581 4.106 0 0 0 
78.704 -12.574 3.401 0 0 0 
79.49 -12.566 2.366 0 0 0 
80.279 -12.561 1.439 0 0 0 
81.065 -12.555 0.578 0 0 0 
81.873 -12.562 -0.504 0 0 0 
82.708 -12.59 -1.77 0 0 0 
83.534 -12.613 -2.869 0 0 0 
84.363 -12.638 -4.002 0 0 0 
85.211 -12.672 -5.475 0 0 0 
86.033 -12.69 -6.529 0 0 0 
86.91 -12.733 -8.429 0 0 0 
87.783 -12.772 -10.152 0 0 0 
88.661 -12.821 -11.792 0 0 0 
89.598 -12.91 -14.201 0 0 0 
90.624 -13.059 -17.738 0 0 0 
91.683 -13.18 -22.402 0 0 0 
92.529 -13.182 -23.788 0 0 0 
-38.257 -12.622 -30.392 0 0 0 
-37.33 -12.521 -26.009 0 0 0 
-36.457 -12.444 -23.111 0 0 0 
-35.552 -12.343 -18.716 0 0 0 
-34.69 -12.299 -15.717 0 0 0 
-33.818 -12.26 -12.138 0 0 0 
-32.976 -12.24 -9.516 0 0 0 
-32.132 -12.212 -7.055 0 0 0 
-31.284 -12.176 -4.405 0 0 0 
-30.454 -12.146 -2.3 0 0 0 
-29.632 -12.118 -0.463 0 0 0 
-28.84 -12.086 1.247 0 0 0 
-28.056 -12.058 2.774 0 0 0 
-27.274 -12.036 4.037 0 0 0 
-26.505 -12.013 5.487 0 0 0 
-25.737 -11.998 6.671 0 0 0 
-24.968 -11.986 7.833 0 0 0 
-24.197 -11.979 8.948 0 0 0 
-23.426 -11.976 9.937 0 0 0 
-22.663 -11.963 10.941 0 0 0 
-21.899 -11.954 11.872 0 0 0 
-21.132 -11.95 12.771 0 0 0 
-20.366 -11.953 13.342 0 0 0 
-19.599 -11.951 14.136 0 0 0 
-18.833 -11.952 14.78 0 0 0 
-18.067 -11.957 15.265 0 0 0 
-17.302 -11.961 15.729 0 0 0 
-16.544 -11.955 16.317 0 0 0 
-15.795 -11.95 16.583 0 0 0 
-15.046 -11.943 16.993 0 0 0 
-14.3 -11.935 17.485 0 0 0 
-13.555 -11.93 17.785 0 0 0 
-12.812 -11.928 17.974 0 0 0 
-12.069 -11.927 18.079 0 0 0 
-11.331 -11.919 18.138 0 0 0 
-10.593 -11.91 18.197 0 0 0 
-9.858 -11.9 18.361 0 0 0 
-9.121 -11.892 18.388 0 0 0 
-8.385 -11.884 18.466 0 0 0 
-7.642 -11.879 18.227 0 0 0 
-6.897 -11.877 17.854 0 0 0 
-6.143 -11.877 17.197 0 0 0 
-5.394 -11.874 16.812 0 0 0 
-4.638 -11.872 16.323 0 0 0 
-3.862 -11.872 15.46 0 0 0 
-3.095 -11.868 14.952 0 0 0 
-2.335 -11.862 14.654 0 0 0 
-1.58 -11.857 14.62 0 0 0 
-0.818 -11.855 14.531 0 0 0 
-0.069 -11.85 14.68 0 0 0 
0.675 -11.845 14.914 0 0 0 
1.414 -11.84 15.254 0 0 0 
2.149 -11.835 15.637 0 0 0 
2.89 -11.83 15.93 0 0 0 
3.634 -11.829 16.422 0 0 0 
4.381 -11.828 16.913 0 0 0 
5.128 -11.826 17.417 0 0 0 
5.879 -11.825 17.901 0 0 0 
6.622 -11.822 18.568 0 0 0 
7.368 -11.82 19.235 0 0 0 
8.123 -11.819 19.791 0 0 0 
8.907 -11.814 20.27 0 0 0 
9.715 -11.797 21.086 0 0 0 
10.512 -11.786 21.638 0 0 0 
11.303 -11.777 22.109 0 0 0 
12.092 -11.765 22.637 0 0 0 
12.878 -11.754 23.124 0 0 0 
13.649 -11.744 23.499 0 0 0 
14.414 -11.73 23.922 0 0 0 
15.179 -11.714 24.444 0 0 0 
15.939 -11.699 24.919 0 0 0 
16.696 -11.691 25.162 0 0 0 
17.452 -11.678 25.582 0 0 0 
18.205 -11.665 25.97 0 0 0 
18.954 -11.653 26.2 0 0 0 
19.702 -11.64 26.453 0 0 0 
20.451 -11.622 26.859 0 0 0 
21.2 -11.604 27.204 0 0 0 
21.948 -11.591 27.39 0 0 0 
22.697 -11.574 27.697 0 0 0 
23.442 -11.559 27.943 0 0 0 
24.181 -11.548 28.2 0 0 0 
24.918 -11.534 28.506 0 0 0 
25.653 -11.52 28.862 0 0 0 
26.386 -11.507 29.179 0 0 0 
27.12 -11.498 29.391 0 0 0 
27.863 -11.511 28.921 0 0 0 
28.61 -11.518 28.813 0 0 0 
29.361 -11.529 28.688 0 0 0 
30.098 -11.517 29.286 0 0 0 
30.843 -11.518 29.449 0 0 0 
31.604 -11.543 28.84 0 0 0 
32.365 -11.567 28.232 0 0 0 
33.118 -11.579 28.038 0 0 0 
33.876 -11.591 27.84 0 0 0 
34.631 -11.601 27.72 0 0 0 
35.386 -11.609 27.663 0 0 0 
36.14 -11.617 27.636 0 0 0 
36.897 -11.627 27.476 0 0 0 
37.656 -11.64 27.191 0 0 0 
38.412 -11.65 27.087 0 0 0 
39.17 -11.664 26.938 0 0 0 
39.936 -11.686 26.356 0 0 0 
40.694 -11.698 26.179 0 0 0 
41.454 -11.713 25.872 0 0 0 
42.218 -11.733 25.262 0 0 0 
42.978 -11.747 24.891 0 0 0 
43.737 -11.753 24.561 0 0 0 
44.5 -11.759 24.087 0 0 0 
45.263 -11.765 23.544 0 0 0 
46.025 -11.77 23.123 0 0 0 
46.785 -11.773 22.797 0 0 0 
47.555 -11.785 21.85 0 0 0 
48.314 -11.787 21.586 0 0 0 
49.083 -11.786 21.156 0 0 0 
49.864 -11.791 20.207 0 0 0 
50.647 -11.787 19.681 0 0 0 
51.436 -11.781 19.149 0 0 0 
52.246 -11.779 18.155 0 0 0 
53.045 -11.775 17.4 0 0 0 
53.84 -11.773 16.674 0 0 0 
54.642 -11.778 15.739 0 0 0 
55.448 -11.785 14.734 0 0 0 
56.251 -11.794 13.799 0 0 0 
57.048 -11.803 13.003 0 0 0 
57.854 -11.815 12.031 0 0 0 
58.648 -11.826 11.315 0 0 0 
59.434 -11.832 10.798 0 0 0 
60.224 -11.836 10.208 0 0 0 
61.001 -11.842 9.78 0 0 0 
61.768 -11.845 9.551 0 0 0 
62.529 -11.841 9.583 0 0 0 
63.294 -11.841 9.432 0 0 0 
64.054 -11.836 9.519 0 0 0 
64.809 -11.837 9.633 0 0 0 
65.561 -11.838 9.837 0 0 0 
66.317 -11.842 9.879 0 0 0 
67.074 -11.846 9.922 0 0 0 
67.832 -11.85 9.926 0 0 0 
68.589 -11.855 9.932 0 0 0 
69.353 -11.859 9.78 0 0 0 
70.12 -11.856 9.624 0 0 0 
70.892 -11.854 9.334 0 0 0 
71.668 -11.853 8.958 0 0 0 
72.441 -11.85 8.669 0 0 0 
73.217 -11.847 8.312 0 0 0 
73.998 -11.844 7.832 0 0 0 
74.777 -11.84 7.354 0 0 0 
75.555 -11.835 6.855 0 0 0 
76.334 -11.829 6.288 0 0 0 
77.117 -11.824 5.557 0 0 0 
77.9 -11.818 4.78 0 0 0 
78.677 -11.81 4.155 0 0 0 
79.462 -11.803 3.231 0 0 0 
80.255 -11.798 2.185 0 0 0 
81.04 -11.791 1.392 0 0 0 
81.842 -11.785 0.051 0 0 0 
82.667 -11.806 -1.083 0 0 0 
83.493 -11.829 -2.195 0 0 0 
84.327 -11.856 -3.419 0 0 0 
85.173 -11.888 -4.863 0 0 0 
86.007 -11.912 -6.123 0 0 0 
86.86 -11.944 -7.626 0 0 0 
87.747 -11.99 -9.598 0 0 0 
88.617 -12.032 -11.17 0 0 0 
89.553 -12.116 -13.582 0 0 0 
90.562 -12.252 -16.923 0 0 0 
91.652 -12.398 -21.884 0 0 0 
92.542 -12.409 -24.086 0 0 0 
-38.198 -11.82 -29.319 0 0 0 
-37.295 -11.732 -25.413 0 0 0 
-36.407 -11.645 -21.637 0 0 0 
-35.524 -11.57 -17.876 0 0 0 
-34.658 -11.522 -14.638 0 0 0 
-33.798 -11.486 -11.29 0 0 0 
-32.956 -11.465 -8.641 0 0 0 
-32.113 -11.436 -6.29 0 0 0 
-31.258 -11.395 -3.44 0 0 0 
-30.43 -11.363 -1.425 0 0 0 
-29.618 -11.333 0.343 0 0 0 
-28.831 -11.299 2.238 0 0 0 
-28.047 -11.275 3.665 0 0 0 
-27.263 -11.256 4.965 0 0 0 
-26.493 -11.241 6.318 0 0 0 
-25.722 -11.232 7.478 0 0 0 
-24.949 -11.226 8.704 0 0 0 
-24.174 -11.225 9.836 0 0 0 
-23.407 -11.214 10.876 0 0 0 
-22.642 -11.202 11.927 0 0 0 
-21.879 -11.195 12.708 0 0 0 
-21.114 -11.191 13.503 0 0 0 
-20.35 -11.188 14.199 0 0 0 
-19.586 -11.186 14.868 0 0 0 
-18.822 -11.186 15.46 0 0 0 
-18.059 -11.187 16.013 0 0 0 
-17.295 -11.186 16.627 0 0 0 
-16.542 -11.185 16.873 0 0 0 
-15.793 -11.175 17.393 0 0 0 
-15.046 -11.165 17.886 0 0 0 
-14.302 -11.16 18.212 0 0 0 
-13.559 -11.152 18.649 0 0 0 
-12.818 -11.148 18.932 0 0 0 
-12.076 -11.147 18.994 0 0 0 
-11.344 -11.139 19.09 0 0 0 
-10.613 -11.13 19.229 0 0 0 
-9.882 -11.121 19.362 0 0 0 
-9.152 -11.113 19.465 0 0 0 
-8.421 -11.106 19.522 0 0 0 
-7.687 -11.101 19.411 0 0 0 
-6.946 -11.099 19.068 0 0 0 
-6.201 -11.098 18.625 0 0 0 
-5.455 -11.095 18.227 0 0 0 
-4.701 -11.094 17.707 0 0 0 
-3.946 -11.091 17.264 0 0 0 
-3.173 -11.09 16.486 0 0 0 
-2.404 -11.087 15.92 0 0 0 
-1.636 -11.085 15.592 0 0 0 
-0.859 -11.085 15.227 0 0 0 
-0.105 -11.082 15.275 0 0 0 
0.642 -11.077 15.479 0 0 0 
1.378 -11.072 15.865 0 0 0 
2.121 -11.067 16.113 0 0 0 
2.867 -11.063 16.325 0 0 0 
3.613 -11.062 16.821 0 0 0 
4.371 -11.062 17.127 0 0 0 
5.116 -11.06 17.711 0 0 0 
5.87 -11.059 18.162 0 0 0 
6.623 -11.058 18.701 0 0 0 
7.375 -11.057 19.298 0 0 0 
8.13 -11.056 19.891 0 0 0 
8.92 -11.05 20.369 0 0 0 
9.721 -11.037 21.058 0 0 0 
10.516 -11.026 21.642 0 0 0 
11.303 -11.018 22.081 0 0 0 
12.089 -11.009 22.546 0 0 0 
12.872 -10.998 23.044 0 0 0 
13.641 -10.989 23.398 0 0 0 
14.404 -10.978 23.785 0 0 0 
15.168 -10.962 24.358 0 0 0 
15.927 -10.949 24.798 0 0 0 
16.684 -10.939 25.108 0 0 0 
17.44 -10.927 25.49 0 0 0 
18.193 -10.914 25.888 0 0 0 
18.941 -10.902 26.156 0 0 0 
19.689 -10.892 26.358 0 0 0 
20.435 -10.87 26.943 0 0 0 
21.181 -10.856 27.223 0 0 0 
21.927 -10.844 27.456 0 0 0 
22.672 -10.828 27.759 0 0 0 
23.415 -10.81 28.169 0 0 0 
24.155 -10.798 28.43 0 0 0 
24.893 -10.78 28.873 0 0 0 
25.621 -10.739 30.009 0 0 0 
26.332 -10.713 31.103 0 0 0 
27.027 -10.675 32.799 0 0 0 
27.708 -10.63 34.96 0 0 0 
28.436 -10.622 35.542 0 0 0 
29.197 -10.638 34.976 0 0 0 
29.968 -10.661 34.07 0 0 0 
30.744 -10.687 33.017 0 0 0 
31.519 -10.711 32.053 0 0 0 
32.297 -10.737 30.994 0 0 0 
33.071 -10.76 30.141 0 0 0 
33.849 -10.802 28.96 0 0 0 
34.614 -10.826 28.39 0 0 0 
35.375 -10.845 27.981 0 0 0 
36.133 -10.858 27.78 0 0 0 
36.892 -10.873 27.498 0 0 0 
37.652 -10.889 27.147 0 0 0 
38.408 -10.899 27.036 0 0 0 
39.168 -10.915 26.735 0 0 0 
39.93 -10.934 26.232 0 0 0 
40.687 -10.946 26.05 0 0 0 
41.448 -10.962 25.599 0 0 0 
42.209 -10.977 25.162 0 0 0 
42.968 -10.991 24.753 0 0 0 
43.727 -10.998 24.405 0 0 0 
44.489 -11.004 23.915 0 0 0 
45.253 -11.011 23.371 0 0 0 
46.013 -11.014 23.027 0 0 0 
46.775 -11.017 22.63 0 0 0 
47.544 -11.027 21.805 0 0 0 
48.305 -11.028 21.506 0 0 0 
49.072 -11.028 21.067 0 0 0 
49.851 -11.032 20.171 0 0 0 
50.632 -11.029 19.676 0 0 0 
51.422 -11.025 19.081 0 0 0 
52.232 -11.023 18.094 0 0 0 
53.024 -11.02 17.48 0 0 0 
53.823 -11.02 16.686 0 0 0 
54.621 -11.022 15.896 0 0 0 
55.429 -11.027 14.91 0 0 0 
56.232 -11.032 14.031 0 0 0 
57.023 -11.036 13.396 0 0 0 
57.821 -11.043 12.616 0 0 0 
58.617 -11.05 11.895 0 0 0 
59.404 -11.056 11.334 0 0 0 
60.18 -11.058 11.013 0 0 0 
60.958 -11.061 10.665 0 0 0 
61.735 -11.064 10.329 0 0 0 
62.5 -11.063 10.244 0 0 0 
63.267 -11.064 10.113 0 0 0 
64.024 -11.062 10.173 0 0 0 
64.773 -11.062 10.355 0 0 0 
