ply
format ascii 1.0
comment VCGLIB generated
element vertex 1580
property float x
property float y
property float z
property float nx
property float ny
property float nz
element face 0
property list uchar int vertex_indices
end_header
3.767 -46.457 -49.667 0 0 0 
4.554 -46.474 -50.548 0 0 0 
5.342 -46.475 -50.936 0 0 0 
6.134 -46.48 -51.448 0 0 0 
6.932 -46.495 -52.184 0 0 0 
7.733 -46.513 -52.956 0 0 0 
8.534 -46.526 -53.532 0 0 0 
9.342 -46.561 -54.62 0 0 0 
10.151 -46.591 -55.508 0 0 0 
10.959 -46.614 -56.135 0 0 0 
11.789 -46.663 -57.32 0 0 0 
12.634 -46.725 -58.697 0 0 0 
13.457 -46.755 -59.301 0 0 0 
14.255 -46.814 -60.902 0 0 0 
15.01 -46.839 -61.979 0 0 0 
15.766 -46.866 -63.083 0 0 0 
16.528 -46.889 -64.048 0 0 0 
17.264 -46.943 -66.099 0 0 0 
18.036 -46.96 -66.847 0 0 0 
18.788 -47.005 -68.534 0 0 0 
19.556 -47.048 -70.13 0 0 0 
20.409 -47.103 -71.325 0 0 0 
21.302 -47.197 -73.323 0 0 0 
22.187 -47.277 -75.041 0 0 0 
23.071 -47.351 -76.641 0 0 0 
24.003 -47.469 -79.113 0 0 0 
24.851 -47.566 -81.75 0 0 0 
25.668 -47.62 -83.475 0 0 0 
26.485 -47.652 -84.673 0 0 0 
27.296 -47.693 -86.443 0 0 0 
28.107 -47.719 -87.884 0 0 0 
28.925 -47.71 -88.114 0 0 0 
-89.521 -47.251 -83.858 0 0 0 
-88.555 -47.172 -81.516 0 0 0 
-87.632 -47.092 -79.289 0 0 0 
-86.795 -47.047 -78.095 0 0 0 
-85.927 -46.973 -76.085 0 0 0 
-85.043 -46.885 -73.771 0 0 0 
-84.19 -46.833 -72.487 0 0 0 
-83.299 -46.746 -70.305 0 0 0 
-82.425 -46.673 -68.902 0 0 0 
-81.552 -46.595 -67.571 0 0 0 
-80.659 -46.493 -65.894 0 0 0 
-79.784 -46.407 -64.605 0 0 0 
-78.933 -46.346 -63.842 0 0 0 
-78.048 -46.242 -62.39 0 0 0 
-77.164 -46.135 -60.992 0 0 0 
-76.297 -46.048 -59.966 0 0 0 
-75.417 -46.034 -58.608 0 0 0 
-74.553 -46.028 -57.444 0 0 0 
-73.695 -46.024 -56.357 0 0 0 
-72.844 -46.021 -55.393 0 0 0 
-71.995 -46.019 -54.437 0 0 0 
-71.148 -46.018 -53.515 0 0 0 
-70.298 -46.018 -52.497 0 0 0 
-69.462 -46.017 -51.697 0 0 0 
-68.624 -46.015 -50.876 0 0 0 
-67.786 -46.014 -50.039 0 0 0 
-66.974 -45.988 -49.615 0 0 0 
-66.153 -45.945 -48.901 0 0 0 
-65.339 -45.911 -48.316 0 0 0 
-64.526 -45.88 -47.739 0 0 0 
-63.709 -45.842 -46.971 0 0 0 
-62.904 -45.823 -46.523 0 0 0 
-62.1 -45.804 -46.055 0 0 0 
-61.296 -45.786 -45.563 0 0 0 
-60.494 -45.77 -45.111 0 0 0 
-59.695 -45.76 -44.719 0 0 0 
-58.905 -45.735 -44.159 0 0 0 
-58.121 -45.698 -43.363 0 0 0 
-57.352 -45.69 -43.219 0 0 0 
-56.584 -45.679 -43.01 0 0 0 
-55.816 -45.666 -42.721 0 0 0 
-55.053 -45.665 -42.721 0 0 0 
-54.288 -45.658 -42.573 0 0 0 
-53.516 -45.646 -42.238 0 0 0 
-52.746 -45.637 -41.969 0 0 0 
-51.978 -45.621 -41.467 0 0 0 
-51.214 -45.578 -40.156 0 0 0 
-50.341 -45.426 -37.047 0 0 0 
-49.583 -45.436 -37.241 0 0 0 
-48.918 -45.583 -40.136 0 0 0 
-48.133 -45.632 -41.827 0 0 0 
-47.372 -45.615 -41.369 0 0 0 
-46.615 -45.598 -40.873 0 0 0 
-45.849 -45.546 -39.546 0 0 0 
-45.033 -45.473 -38.211 0 0 0 
-44.229 -45.418 -37.245 0 0 0 
-43.416 -45.376 -36.686 0 0 0 
-42.58 -45.317 -35.891 0 0 0 
-41.76 -45.282 -35.497 0 0 0 
-40.992 -45.308 -36.333 0 0 0 
-40.224 -45.332 -37.17 0 0 0 
-39.427 -45.321 -37.305 0 0 0 
-38.619 -45.297 -37.172 0 0 0 
-37.76 -45.218 -35.7 0 0 0 
-36.877 -45.118 -33.657 0 0 0 
-36.029 -45.055 -32.397 0 0 0 
-35.274 -45.087 -33.354 0 0 0 
-34.59 -45.184 -35.977 0 0 0 
-33.844 -45.219 -37.154 0 0 0 
-33.044 -45.203 -37.022 0 0 0 
-32.197 -45.145 -35.657 0 0 0 
-31.369 -45.103 -34.658 0 0 0 
-30.531 -45.05 -33.283 0 0 0 
-29.802 -45.103 -34.917 0 0 0 
-29.11 -45.194 -37.795 0 0 0 
-28.306 -45.175 -37.439 0 0 0 
-27.506 -45.16 -36.862 0 0 0 
-26.702 -45.134 -35.726 0 0 0 
-25.902 -45.102 -34.453 0 0 0 
-25.121 -45.086 -33.644 0 0 0 
-24.394 -45.178 -36.166 0 0 0 
-23.649 -45.268 -38.632 0 0 0 
-22.87 -45.288 -38.943 0 0 0 
-22.08 -45.253 -37.635 0 0 0 
-21.296 -45.21 -36.066 0 0 0 
-20.521 -45.191 -35.238 0 0 0 
-19.748 -45.196 -35.141 0 0 0 
-18.968 -45.239 -36.261 0 0 0 
-18.177 -45.305 -38.105 0 0 0 
-17.387 -45.334 -38.889 0 0 0 
-16.605 -45.327 -38.688 0 0 0 
-15.825 -45.316 -38.365 0 0 0 
-15.04 -45.318 -38.482 0 0 0 
-14.256 -45.317 -38.48 0 0 0 
-13.46 -45.334 -39.067 0 0 0 
-12.654 -45.37 -40.164 0 0 0 
-11.86 -45.463 -42.038 0 0 0 
-11.077 -45.452 -42.036 0 0 0 
-10.296 -45.423 -41.685 0 0 0 
-9.513 -45.42 -41.839 0 0 0 
-8.719 -45.558 -44.512 0 0 0 
-7.924 -45.732 -47.796 0 0 0 
-7.143 -45.716 -47.656 0 0 0 
-6.362 -45.656 -46.81 0 0 0 
-5.578 -45.63 -46.559 0 0 0 
-4.794 -45.606 -46.35 0 0 0 
-4.01 -45.599 -46.444 0 0 0 
-3.225 -45.586 -46.429 0 0 0 
-2.44 -45.58 -46.529 0 0 0 
-1.658 -45.574 -46.609 0 0 0 
-0.88 -45.589 -47.012 0 0 0 
-0.102 -45.603 -47.44 0 0 0 
0.675 -45.609 -47.725 0 0 0 
1.452 -45.618 -48.127 0 0 0 
2.227 -45.635 -48.747 0 0 0 
3.002 -45.637 -49.04 0 0 0 
3.78 -45.637 -49.303 0 0 0 
4.558 -45.654 -50.099 0 0 0 
5.343 -45.661 -50.667 0 0 0 
6.128 -45.661 -51.02 0 0 0 
6.923 -45.682 -51.908 0 0 0 
7.72 -45.701 -52.672 0 0 0 
8.515 -45.711 -53.135 0 0 0 
9.324 -45.748 -54.284 0 0 0 
10.132 -45.779 -55.173 0 0 0 
10.936 -45.797 -55.695 0 0 0 
11.769 -45.853 -57 0 0 0 
12.606 -45.907 -58.192 0 0 0 
13.434 -45.945 -58.954 0 0 0 
14.264 -46.004 -60.276 0 0 0 
15.009 -46.032 -61.543 0 0 0 
15.768 -46.052 -62.472 0 0 0 
16.518 -46.082 -63.757 0 0 0 
17.264 -46.118 -65.243 0 0 0 
18.02 -46.149 -66.532 0 0 0 
18.775 -46.183 -67.918 0 0 0 
19.527 -46.227 -69.659 0 0 0 
20.355 -46.271 -70.794 0 0 0 
21.255 -46.37 -72.854 0 0 0 
22.142 -46.449 -74.499 0 0 0 
23.027 -46.52 -76.004 0 0 0 
23.978 -46.649 -78.625 0 0 0 
24.864 -46.739 -80.763 0 0 0 
25.676 -46.8 -82.768 0 0 0 
26.488 -46.845 -84.463 0 0 0 
27.293 -46.889 -86.448 0 0 0 
28.103 -46.908 -87.754 0 0 0 
28.922 -46.897 -87.879 0 0 0 
-89.48 -46.429 -83.304 0 0 0 
-88.519 -46.351 -81.02 0 0 0 
-87.611 -46.266 -78.705 0 0 0 
-86.775 -46.218 -77.437 0 0 0 
-85.892 -46.124 -74.901 0 0 0 
-85.035 -46.064 -73.339 0 0 0 
-84.163 -45.993 -71.514 0 0 0 
-83.28 -45.915 -69.657 0 0 0 
-82.407 -45.844 -68.384 0 0 0 
-81.515 -45.75 -66.744 0 0 0 
-80.629 -45.658 -65.276 0 0 0 
-79.751 -45.57 -63.976 0 0 0 
-78.892 -45.502 -63.103 0 0 0 
-77.996 -45.387 -61.483 0 0 0 
-77.127 -45.301 -60.444 0 0 0 
-76.239 -45.245 -59.116 0 0 0 
-75.374 -45.233 -58.031 0 0 0 
-74.506 -45.228 -56.774 0 0 0 
-73.649 -45.224 -55.711 0 0 0 
-72.802 -45.222 -54.798 0 0 0 
-71.96 -45.221 -53.971 0 0 0 
-71.111 -45.22 -52.995 0 0 0 
-70.266 -45.221 -52.068 0 0 0 
-69.426 -45.222 -51.218 0 0 0 
-68.596 -45.222 -50.527 0 0 0 
-67.765 -45.21 -49.789 0 0 0 
-66.947 -45.174 -49.182 0 0 0 
-66.125 -45.132 -48.427 0 0 0 
-65.313 -45.106 -47.93 0 0 0 
-64.496 -45.069 -47.211 0 0 0 
-63.681 -45.036 -46.503 0 0 0 
-62.878 -45.02 -46.107 0 0 0 
-62.075 -45.004 -45.683 0 0 0 
-61.271 -44.988 -45.212 0 0 0 
-60.47 -44.974 -44.781 0 0 0 
-59.67 -44.962 -44.332 0 0 0 
-58.878 -44.932 -43.629 0 0 0 
-58.1 -44.908 -43.107 0 0 0 
-57.329 -44.891 -42.741 0 0 0 
-56.561 -44.879 -42.481 0 0 0 
-55.796 -44.871 -42.295 0 0 0 
-55.032 -44.865 -42.169 0 0 0 
-54.269 -44.856 -41.949 0 0 0 
-53.504 -44.854 -41.874 0 0 0 
-52.739 -44.839 -41.45 0 0 0 
-51.977 -44.813 -40.638 0 0 0 
-51.191 -44.757 -39.243 0 0 0 
-50.335 -44.629 -36.649 0 0 0 
-49.571 -44.626 -36.569 0 0 0 
-48.89 -44.736 -38.757 0 0 0 
-48.163 -44.818 -40.742 0 0 0 
-47.403 -44.808 -40.47 0 0 0 
-46.6 -44.73 -38.787 0 0 0 
-45.757 -44.625 -36.82 0 0 0 
-44.939 -44.553 -35.511 0 0 0 
-44.157 -44.529 -35.127 0 0 0 
-43.396 -44.555 -35.837 0 0 0 
-42.63 -44.584 -36.718 0 0 0 
-41.845 -44.589 -37.149 0 0 0 
-41.047 -44.578 -37.274 0 0 0 
-40.25 -44.566 -37.404 0 0 0 
-39.452 -44.554 -37.519 0 0 0 
-38.639 -44.526 -37.282 0 0 0 
-37.815 -44.486 -36.726 0 0 0 
-36.972 -44.428 -35.703 0 0 0 
-36.098 -44.342 -33.96 0 0 0 
-35.368 -44.394 -35.535 0 0 0 
-34.585 -44.395 -35.896 0 0 0 
-33.794 -44.388 -36.083 0 0 0 
-32.999 -44.377 -36.098 0 0 0 
-32.215 -44.377 -36.265 0 0 0 
-31.42 -44.367 -36.142 0 0 0 
-30.63 -44.362 -36.172 0 0 0 
-29.849 -44.365 -36.449 0 0 0 
-29.065 -44.364 -36.644 0 0 0 
-28.265 -44.35 -36.388 0 0 0 
-27.474 -44.342 -35.972 0 0 0 
-26.697 -44.346 -35.782 0 0 0 
-25.923 -44.353 -35.687 0 0 0 
-25.158 -44.373 -36.014 0 0 0 
-24.412 -44.436 -37.734 0 0 0 
-23.645 -44.476 -38.701 0 0 0 
-22.867 -44.502 -39.219 0 0 0 
-22.078 -44.467 -37.812 0 0 0 
-21.297 -44.436 -36.537 0 0 0 
-20.524 -44.401 -35.095 0 0 0 
-19.755 -44.41 -35.091 0 0 0 
-18.968 -44.497 -37.675 0 0 0 
-18.166 -44.586 -40.182 0 0 0 
-17.38 -44.601 -40.349 0 0 0 
-16.601 -44.569 -39.625 0 0 0 
-15.829 -44.543 -38.795 0 0 0 
-15.049 -44.535 -38.564 0 0 0 
-14.266 -44.532 -38.508 0 0 0 
-13.456 -44.567 -39.702 0 0 0 
-12.651 -44.679 -41.924 0 0 0 
-11.861 -44.718 -42.786 0 0 0 
-11.078 -44.682 -42.363 0 0 0 
-10.296 -44.643 -41.873 0 0 0 
-9.506 -44.688 -42.915 0 0 0 
-8.695 -44.953 -47.974 0 0 0 
-7.907 -44.993 -48.915 0 0 0 
-7.128 -44.935 -48.07 0 0 0 
-6.348 -44.864 -47 0 0 0 
-5.566 -44.829 -46.578 0 0 0 
-4.782 -44.807 -46.4 0 0 0 
-3.998 -44.793 -46.363 0 0 0 
-3.213 -44.779 -46.321 0 0 0 
-2.429 -44.766 -46.299 0 0 0 
-1.646 -44.759 -46.345 0 0 0 
-0.868 -44.764 -46.562 0 0 0 
-0.09 -44.773 -46.864 0 0 0 
0.688 -44.781 -47.194 0 0 0 
1.465 -44.796 -47.708 0 0 0 
2.241 -44.804 -48.112 0 0 0 
3.017 -44.813 -48.583 0 0 0 
3.792 -44.823 -49.082 0 0 0 
4.567 -44.83 -49.575 0 0 0 
5.342 -44.838 -50.158 0 0 0 
6.125 -44.849 -50.802 0 0 0 
6.913 -44.865 -51.525 0 0 0 
7.706 -44.885 -52.306 0 0 0 
8.499 -44.899 -52.858 0 0 0 
9.302 -44.93 -53.831 0 0 0 
10.113 -44.967 -54.857 0 0 0 
10.917 -44.987 -55.42 0 0 0 
11.742 -45.033 -56.488 0 0 0 
12.581 -45.093 -57.781 0 0 0 
13.406 -45.129 -58.503 0 0 0 
14.25 -45.188 -59.678 0 0 0 
15.009 -45.228 -61.155 0 0 0 
15.768 -45.244 -61.99 0 0 0 
16.512 -45.275 -63.372 0 0 0 
17.253 -45.31 -64.914 0 0 0 
18.01 -45.335 -66.043 0 0 0 
18.759 -45.369 -67.501 0 0 0 
19.513 -45.405 -69.008 0 0 0 
20.299 -45.44 -70.251 0 0 0 
21.201 -45.538 -72.271 0 0 0 
22.092 -45.618 -73.913 0 0 0 
22.978 -45.687 -75.325 0 0 0 
23.915 -45.797 -77.517 0 0 0 
24.878 -45.927 -80.133 0 0 0 
25.689 -45.977 -81.845 0 0 0 
26.492 -46.036 -84.153 0 0 0 
27.29 -46.085 -86.513 0 0 0 
28.096 -46.104 -87.907 0 0 0 
28.913 -46.095 -88.201 0 0 0 
-89.447 -45.598 -82.693 0 0 0 
-88.474 -45.511 -80.229 0 0 0 
-87.6 -45.431 -78.06 0 0 0 
-86.742 -45.358 -76.088 0 0 0 
-85.873 -45.281 -74.008 0 0 0 
-85.016 -45.222 -72.477 0 0 0 
-84.144 -45.154 -70.701 0 0 0 
-83.268 -45.086 -69.185 0 0 0 
-82.381 -45.005 -67.645 0 0 0 
-81.498 -44.924 -66.206 0 0 0 
-80.608 -44.833 -64.694 0 0 0 
-79.731 -44.751 -63.446 0 0 0 
-78.861 -44.673 -62.354 0 0 0 
-77.976 -44.575 -60.987 0 0 0 
-77.1 -44.492 -59.835 0 0 0 
-76.211 -44.46 -58.538 0 0 0 
-75.348 -44.446 -57.488 0 0 0 
-74.477 -44.437 -56.199 0 0 0 
-73.631 -44.431 -55.33 0 0 0 
-72.768 -44.425 -54.155 0 0 0 
-71.934 -44.422 -53.486 0 0 0 
-71.082 -44.419 -52.444 0 0 0 
-70.231 -44.418 -51.414 0 0 0 
-69.402 -44.419 -50.771 0 0 0 
-68.574 -44.422 -50.109 0 0 0 
-67.752 -44.39 -49.403 0 0 0 
-66.932 -44.354 -48.709 0 0 0 
-66.115 -44.32 -48.043 0 0 0 
-65.309 -44.303 -47.645 0 0 0 
-64.487 -44.261 -46.781 0 0 0 
-63.678 -44.236 -46.229 0 0 0 
-62.872 -44.216 -45.751 0 0 0 
-62.072 -44.205 -45.403 0 0 0 
-61.27 -44.19 -44.971 0 0 0 
-60.47 -44.177 -44.537 0 0 0 
-59.666 -44.159 -43.968 0 0 0 
-58.879 -44.138 -43.451 0 0 0 
-58.1 -44.109 -42.818 0 0 0 
-57.328 -44.089 -42.378 0 0 0 
-56.564 -44.083 -42.246 0 0 0 
-55.798 -44.07 -41.93 0 0 0 
-55.034 -44.059 -41.654 0 0 0 
-54.273 -44.055 -41.566 0 0 0 
-53.507 -44.044 -41.232 0 0 0 
-52.742 -44.029 -40.772 0 0 0 
-51.979 -44.007 -40.067 0 0 0 
-51.191 -43.973 -39.313 0 0 0 
-50.367 -43.893 -37.637 0 0 0 
-49.6 -43.89 -37.536 0 0 0 
-48.858 -43.918 -38.115 0 0 0 
-48.115 -43.943 -38.659 0 0 0 
-47.341 -43.927 -38.391 0 0 0 
-46.526 -43.859 -37.111 0 0 0 
-45.715 -43.798 -35.971 0 0 0 
-44.885 -43.714 -34.412 0 0 0 
-44.118 -43.71 -34.4 0 0 0 
-43.373 -43.755 -35.492 0 0 0 
-42.624 -43.804 -36.788 0 0 0 
-41.844 -43.814 -37.338 0 0 0 
-41.034 -43.788 -37.158 0 0 0 
-40.216 -43.755 -36.817 0 0 0 
-39.406 -43.731 -36.659 0 0 0 
-38.592 -43.704 -36.425 0 0 0 
-37.796 -43.691 -36.463 0 0 0 
-36.998 -43.677 -36.465 0 0 0 
-36.173 -43.637 -35.834 0 0 0 
-35.368 -43.616 -35.646 0 0 0 
-34.535 -43.571 -34.797 0 0 0 
-33.713 -43.537 -34.197 0 0 0 
-32.91 -43.519 -33.958 0 0 0 
-32.15 -43.54 -34.676 0 0 0 
-31.423 -43.59 -36.308 0 0 0 
-30.639 -43.59 -36.507 0 0 0 
-29.829 -43.566 -35.952 0 0 0 
-29.001 -43.524 -34.802 0 0 0 
-28.188 -43.496 -34.023 0 0 0 
-27.427 -43.513 -34.411 0 0 0 
-26.674 -43.539 -34.966 0 0 0 
-25.914 -43.562 -35.373 0 0 0 
-25.152 -43.586 -35.843 0 0 0 
-24.389 -43.614 -36.454 0 0 0 
-23.616 -43.626 -36.534 0 0 0 
-22.842 -43.639 -36.619 0 0 0 
-22.071 -43.658 -36.984 0 0 0 
-21.298 -43.667 -37.01 0 0 0 
-20.526 -43.674 -36.959 0 0 0 
-19.748 -43.711 -37.952 0 0 0 
-18.968 -43.741 -38.711 0 0 0 
-18.18 -43.779 -39.786 0 0 0 
-17.395 -43.789 -39.984 0 0 0 
-16.611 -43.783 -39.79 0 0 0 
-15.828 -43.776 -39.564 0 0 0 
-15.047 -43.767 -39.295 0 0 0 
-14.257 -43.774 -39.575 0 0 0 
-13.461 -43.793 -40.156 0 0 0 
-12.673 -43.809 -40.464 0 0 0 
-11.882 -43.849 -41.328 0 0 0 
-11.091 -43.889 -42.285 0 0 0 
-10.3 -43.934 -43.322 0 0 0 
-9.496 -44.106 -46.775 0 0 0 
-8.706 -44.139 -47.639 0 0 0 
-7.924 -44.092 -46.992 0 0 0 
-7.149 -43.953 -44.576 0 0 0 
-6.362 -43.97 -45.133 0 0 0 
-5.572 -44.022 -46.365 0 0 0 
-4.787 -44.015 -46.454 0 0 0 
-4.003 -43.991 -46.209 0 0 0 
-3.219 -43.974 -46.114 0 0 0 
-2.435 -43.956 -46.005 0 0 0 
-1.653 -43.946 -45.98 0 0 0 
-0.874 -43.946 -46.093 0 0 0 
-0.096 -43.952 -46.315 0 0 0 
0.682 -43.958 -46.575 0 0 0 
1.46 -43.972 -47.073 0 0 0 
2.237 -43.981 -47.487 0 0 0 
3.014 -43.989 -47.926 0 0 0 
3.791 -44.003 -48.489 0 0 0 
4.567 -44.023 -49.293 0 0 0 
5.343 -44.026 -49.671 0 0 0 
6.123 -44.041 -50.386 0 0 0 
6.913 -44.064 -51.264 0 0 0 
7.703 -44.081 -51.909 0 0 0 
8.497 -44.099 -52.562 0 0 0 
9.296 -44.128 -53.49 0 0 0 
10.099 -44.157 -54.351 0 0 0 
10.904 -44.183 -55.07 0 0 0 
11.718 -44.218 -55.946 0 0 0 
12.551 -44.273 -57.18 0 0 0 
13.373 -44.31 -57.945 0 0 0 
14.217 -44.374 -59.24 0 0 0 
15.018 -44.418 -60.422 0 0 0 
15.767 -44.443 -61.627 0 0 0 
16.517 -44.469 -62.85 0 0 0 
17.26 -44.504 -64.424 0 0 0 
18.02 -44.526 -65.468 0 0 0 
18.77 -44.561 -66.984 0 0 0 
19.525 -44.598 -68.534 0 0 0 
20.297 -44.624 -69.63 0 0 0 
21.156 -44.698 -71.356 0 0 0 
22.051 -44.785 -73.15 0 0 0 
22.946 -44.866 -74.771 0 0 0 
23.844 -44.944 -76.324 0 0 0 
24.848 -45.108 -79.552 0 0 0 
25.694 -45.156 -80.79 0 0 0 
26.494 -45.222 -83.415 0 0 0 
27.291 -45.277 -86.003 0 0 0 
28.084 -45.318 -88.498 0 0 0 
28.934 -45.454 -91.707 0 0 0 
-90.516 -44.902 -86.119 0 0 0 
-89.446 -44.776 -82.477 0 0 0 
-88.444 -44.653 -79.048 0 0 0 
-87.579 -44.576 -76.927 0 0 0 
-86.719 -44.506 -74.992 0 0 0 
-85.872 -44.455 -73.662 0 0 0 
-85.001 -44.384 -71.742 0 0 0 
-84.14 -44.329 -70.291 0 0 0 
-83.245 -44.247 -68.5 0 0 0 
-82.365 -44.178 -67.095 0 0 0 
-81.487 -44.107 -65.743 0 0 0 
-80.588 -44.012 -64.028 0 0 0 
-79.72 -43.943 -62.957 0 0 0 
-78.849 -43.868 -61.863 0 0 0 
-77.964 -43.775 -60.496 0 0 0 
-77.096 -43.718 -59.55 0 0 0 
-76.189 -43.678 -57.958 0 0 0 
-75.329 -43.66 -56.971 0 0 0 
-74.47 -43.648 -55.918 0 0 0 
-73.609 -43.637 -54.811 0 0 0 
-72.753 -43.627 -53.763 0 0 0 
-71.915 -43.62 -53.035 0 0 0 
-71.069 -43.614 -52.135 0 0 0 
-70.216 -43.607 -51.084 0 0 0 
-69.39 -43.611 -50.459 0 0 0 
-68.564 -43.601 -49.738 0 0 0 
-67.749 -43.574 -49.114 0 0 0 
-66.924 -43.529 -48.186 0 0 0 
-66.119 -43.516 -47.801 0 0 0 
-65.306 -43.489 -47.181 0 0 0 
-64.494 -43.461 -46.546 0 0 0 
-63.68 -43.427 -45.837 0 0 0 
-62.877 -43.411 -45.407 0 0 0 
-62.08 -43.404 -45.15 0 0 0 
-61.278 -43.387 -44.67 0 0 0 
-60.474 -43.368 -44.096 0 0 0 
-59.677 -43.36 -43.75 0 0 0 
-58.889 -43.335 -43.149 0 0 0 
-58.108 -43.3 -42.38 0 0 0 
-57.34 -43.286 -42.087 0 0 0 
-56.575 -43.275 -41.831 0 0 0 
-55.811 -43.264 -41.569 0 0 0 
-55.049 -43.255 -41.315 0 0 0 
-54.288 -43.246 -41.071 0 0 0 
-53.518 -43.236 -40.781 0 0 0 
-52.749 -43.222 -40.316 0 0 0 
-51.972 -43.202 -39.768 0 0 0 
-51.185 -43.181 -39.271 0 0 0 
-50.382 -43.137 -38.302 0 0 0 
-49.595 -43.115 -37.813 0 0 0 
-48.826 -43.114 -37.78 0 0 0 
-48.063 -43.112 -37.81 0 0 0 
-47.275 -43.08 -37.206 0 0 0 
-46.47 -43.027 -36.212 0 0 0 
-45.679 -42.992 -35.588 0 0 0 
-44.864 -42.928 -34.392 0 0 0 
-44.094 -42.921 -34.317 0 0 0 
-43.324 -42.935 -34.815 0 0 0 
-42.542 -42.946 -35.338 0 0 0 
-41.745 -42.938 -35.499 0 0 0 
-40.939 -42.921 -35.448 0 0 0 
-40.109 -42.877 -34.832 0 0 0 
-39.286 -42.843 -34.389 0 0 0 
-38.466 -42.814 -34.036 0 0 0 
-37.682 -42.813 -34.248 0 0 0 
-36.932 -42.843 -35.261 0 0 0 
-36.14 -42.834 -35.304 0 0 0 
-35.305 -42.784 -34.311 0 0 0 
-34.487 -42.75 -33.679 0 0 0 
-33.685 -42.732 -33.438 0 0 0 
-32.889 -42.72 -33.308 0 0 0 
-32.102 -42.716 -33.297 0 0 0 
-31.341 -42.736 -34.018 0 0 0 
-30.57 -42.747 -34.496 0 0 0 
-29.771 -42.732 -34.167 0 0 0 
-28.964 -42.708 -33.512 0 0 0 
-28.17 -42.697 -33.263 0 0 0 
-27.402 -42.706 -33.366 0 0 0 
-26.652 -42.731 -33.91 0 0 0 
-25.898 -42.758 -34.5 0 0 0 
-25.135 -42.776 -34.769 0 0 0 
-24.371 -42.797 -35.139 0 0 0 
-23.6 -42.799 -34.885 0 0 0 
-22.833 -42.814 -35.042 0 0 0 
-22.067 -42.837 -35.584 0 0 0 
-21.299 -42.864 -36.262 0 0 0 
-20.529 -42.887 -36.813 0 0 0 
-19.756 -42.909 -37.346 0 0 0 
-18.983 -42.92 -37.503 0 0 0 
-18.211 -42.927 -37.498 0 0 0 
-17.434 -42.934 -37.607 0 0 0 
-16.635 -42.969 -38.975 0 0 0 
-15.835 -42.999 -40.06 0 0 0 
-15.046 -43.028 -40.603 0 0 0 
-14.261 -43.012 -40.332 0 0 0 
-13.483 -42.983 -39.643 0 0 0 
-12.724 -42.951 -38.429 0 0 0 
-11.967 -42.91 -37.111 0 0 0 
-11.117 -42.977 -39.955 0 0 0 
-10.311 -43.229 -44.924 0 0 0 
-9.516 -43.31 -46.711 0 0 0 
-8.736 -43.209 -44.965 0 0 0 
-7.958 -43.095 -42.92 0 0 0 
-7.181 -42.972 -40.64 0 0 0 
-6.393 -42.99 -41.218 0 0 0 
-5.592 -43.157 -44.841 0 0 0 
-4.803 -43.202 -46.009 0 0 0 
-4.019 -43.18 -45.811 0 0 0 
-3.235 -43.161 -45.653 0 0 0 
-2.45 -43.145 -45.578 0 0 0 
-1.668 -43.137 -45.588 0 0 0 
-0.889 -43.138 -45.7 0 0 0 
-0.11 -43.139 -45.824 0 0 0 
0.668 -43.147 -46.124 0 0 0 
1.446 -43.157 -46.523 0 0 0 
2.224 -43.175 -47.179 0 0 0 
3 -43.18 -47.55 0 0 0 
3.781 -43.19 -47.973 0 0 0 
4.563 -43.218 -48.956 0 0 0 
5.344 -43.23 -49.504 0 0 0 
6.126 -43.238 -49.951 0 0 0 
6.918 -43.268 -50.971 0 0 0 
7.711 -43.291 -51.704 0 0 0 
8.503 -43.302 -52.116 0 0 0 
9.301 -43.339 -53.325 0 0 0 
10.099 -43.365 -54.148 0 0 0 
10.894 -43.379 -54.609 0 0 0 
11.709 -43.422 -55.699 0 0 0 
12.536 -43.476 -56.956 0 0 0 
13.348 -43.501 -57.504 0 0 0 
14.186 -43.562 -58.799 0 0 0 
15.009 -43.618 -60.102 0 0 0 
15.77 -43.636 -61.001 0 0 0 
16.514 -43.672 -62.634 0 0 0 
17.275 -43.696 -63.727 0 0 0 
18.027 -43.732 -65.292 0 0 0 
18.793 -43.755 -66.354 0 0 0 
19.548 -43.797 -68.105 0 0 0 
20.325 -43.82 -69.094 0 0 0 
21.13 -43.867 -70.515 0 0 0 
22.027 -43.96 -72.448 0 0 0 
22.912 -44.036 -74.012 0 0 0 
23.804 -44.115 -75.584 0 0 0 
24.771 -44.256 -78.367 0 0 0 
25.684 -44.357 -80.537 0 0 0 
26.493 -44.41 -82.601 0 0 0 
27.294 -44.461 -84.949 0 0 0 
28.071 -44.542 -89.309 0 0 0 
28.982 -44.782 -93.464 0 0 0 
-90.477 -44.066 -85.374 0 0 0 
-89.413 -43.936 -81.786 0 0 0 
-88.435 -43.811 -78.32 0 0 0 
-87.567 -43.734 -76.146 0 0 0 
-86.708 -43.668 -74.299 0 0 0 
-85.86 -43.618 -72.957 0 0 0 
-84.996 -43.557 -71.31 0 0 0 
-84.1 -43.476 -69.21 0 0 0 
-83.23 -43.42 -67.998 0 0 0 
-82.36 -43.364 -66.759 0 0 0 
-81.471 -43.29 -65.167 0 0 0 
-80.582 -43.21 -63.666 0 0 0 
-79.711 -43.142 -62.535 0 0 0 
-78.835 -43.066 -61.331 0 0 0 
-77.961 -42.989 -60.185 0 0 0 
-77.077 -42.937 -59.03 0 0 0 
-76.167 -42.891 -57.401 0 0 0 
-75.313 -42.871 -56.537 0 0 0 
-74.465 -42.857 -55.682 0 0 0 
-73.576 -42.835 -54.101 0 0 0 
-72.734 -42.824 -53.321 0 0 0 
-71.902 -42.816 -52.711 0 0 0 
-71.048 -42.804 -51.69 0 0 0 
-70.2 -42.794 -50.761 0 0 0 
-69.373 -42.799 -50.08 0 0 0 
-68.557 -42.778 -49.399 0 0 0 
-67.745 -42.756 -48.78 0 0 0 
-66.925 -42.72 -47.917 0 0 0 
-66.124 -42.712 -47.58 0 0 0 
-65.311 -42.685 -46.893 0 0 0 
-64.501 -42.659 -46.285 0 0 0 
-63.687 -42.624 -45.551 0 0 0 
-62.886 -42.61 -45.171 0 0 0 
-62.089 -42.602 -44.889 0 0 0 
-61.281 -42.576 -44.215 0 0 0 
-60.484 -42.567 -43.86 0 0 0 
-59.686 -42.557 -43.458 0 0 0 
-58.898 -42.53 -42.823 0 0 0 
-58.118 -42.495 -42.051 0 0 0 
-57.352 -42.483 -41.789 0 0 0 
-56.588 -42.473 -41.569 0 0 0 
-55.825 -42.462 -41.296 0 0 0 
-55.064 -42.45 -40.978 0 0 0 
-54.304 -42.438 -40.662 0 0 0 
-53.53 -42.433 -40.478 0 0 0 
-52.751 -42.414 -39.902 0 0 0 
-51.961 -42.396 -39.442 0 0 0 
-51.171 -42.378 -39.009 0 0 0 
-50.374 -42.351 -38.37 0 0 0 
-49.576 -42.323 -37.734 0 0 0 
-48.796 -42.312 -37.494 0 0 0 
-48.022 -42.297 -37.252 0 0 0 
-47.226 -42.256 -36.459 0 0 0 
-46.435 -42.221 -35.822 0 0 0 
-45.646 -42.189 -35.246 0 0 0 
-44.85 -42.151 -34.537 0 0 0 
-44.069 -42.129 -34.187 0 0 0 
-43.278 -42.12 -34.218 0 0 0 
-42.482 -42.115 -34.393 0 0 0 
-41.669 -42.091 -34.184 0 0 0 
-40.856 -42.067 -33.971 0 0 0 
-40.043 -42.044 -33.767 0 0 0 
-39.23 -42.023 -33.573 0 0 0 
-38.415 -42 -33.339 0 0 0 
-37.62 -41.985 -33.183 0 0 0 
-36.84 -41.985 -33.373 0 0 0 
-36.043 -41.97 -33.178 0 0 0 
-35.246 -41.954 -32.957 0 0 0 
-34.456 -41.944 -32.909 0 0 0 
-33.666 -41.935 -32.85 0 0 0 
-32.874 -41.924 -32.709 0 0 0 
-32.084 -41.916 -32.577 0 0 0 
-31.298 -41.913 -32.561 0 0 0 
-30.507 -41.904 -32.371 0 0 0 
-29.72 -41.899 -32.31 0 0 0 
-28.942 -41.904 -32.563 0 0 0 
-28.16 -41.905 -32.697 0 0 0 
-27.402 -41.923 -33.125 0 0 0 
-26.645 -41.94 -33.388 0 0 0 
-25.885 -41.955 -33.58 0 0 0 
-25.124 -41.97 -33.751 0 0 0 
-24.363 -41.991 -34.142 0 0 0 
-23.599 -42.007 -34.346 0 0 0 
-22.833 -42.024 -34.588 0 0 0 
-22.068 -42.046 -35.124 0 0 0 
-21.301 -42.071 -35.786 0 0 0 
-20.534 -42.086 -36.075 0 0 0 
-19.766 -42.092 -36.064 0 0 0 
-18.998 -42.101 -36.173 0 0 0 
-18.232 -42.102 -35.971 0 0 0 
-17.459 -42.111 -36.177 0 0 0 
-16.673 -42.125 -36.763 0 0 0 
-15.857 -42.188 -39.374 0 0 0 
-15.062 -42.215 -40.231 0 0 0 
-14.279 -42.197 -39.816 0 0 0 
-13.506 -42.179 -39.1 0 0 0 
-12.761 -42.132 -37.201 0 0 0 
-11.99 -42.11 -36.499 0 0 0 
-11.18 -42.129 -37.565 0 0 0 
-10.337 -42.296 -42.136 0 0 0 
-9.545 -42.362 -43.601 0 0 0 
-8.761 -42.301 -42.529 0 0 0 
-7.978 -42.237 -41.337 0 0 0 
-7.197 -42.174 -40.128 0 0 0 
-6.41 -42.174 -40.34 0 0 0 
-5.613 -42.291 -43.118 0 0 0 
-4.823 -42.337 -44.381 0 0 0 
-4.036 -42.344 -44.787 0 0 0 
-3.251 -42.329 -44.73 0 0 0 
-2.466 -42.322 -44.83 0 0 0 
-1.683 -42.312 -44.81 0 0 0 
-0.903 -42.326 -45.191 0 0 0 
-0.124 -42.339 -45.569 0 0 0 
0.654 -42.343 -45.794 0 0 0 
1.433 -42.352 -46.15 0 0 0 
2.21 -42.373 -46.937 0 0 0 
2.987 -42.378 -47.325 0 0 0 
3.771 -42.388 -47.708 0 0 0 
4.558 -42.417 -48.703 0 0 0 
5.345 -42.433 -49.298 0 0 0 
6.132 -42.446 -49.814 0 0 0 
6.924 -42.47 -50.572 0 0 0 
7.721 -42.501 -51.489 0 0 0 
8.514 -42.514 -51.895 0 0 0 
9.303 -42.54 -52.851 0 0 0 
10.1 -42.574 -53.932 0 0 0 
10.891 -42.581 -54.263 0 0 0 
11.702 -42.627 -55.474 0 0 0 
12.516 -42.666 -56.454 0 0 0 
13.33 -42.699 -57.203 0 0 0 
14.152 -42.743 -58.168 0 0 0 
14.983 -42.81 -59.682 0 0 0 
15.769 -42.829 -60.392 0 0 0 
16.516 -42.869 -62.134 0 0 0 
17.28 -42.893 -63.235 0 0 0 
18.039 -42.927 -64.732 0 0 0 
18.809 -42.95 -65.792 0 0 0 
19.567 -42.997 -67.726 0 0 0 
20.348 -43.018 -68.64 0 0 0 
21.124 -43.054 -70.02 0 0 0 
22.012 -43.143 -71.911 0 0 0 
22.891 -43.218 -73.451 0 0 0 
23.783 -43.302 -75.146 0 0 0 
24.708 -43.413 -77.338 0 0 0 
25.666 -43.541 -79.814 0 0 0 
26.488 -43.602 -81.98 0 0 0 
27.296 -43.645 -83.927 0 0 0 
28.07 -43.742 -88.971 0 0 0 
28.977 -43.976 -93.353 0 0 0 
29.845 -44.071 -94.782 0 0 0 
-90.43 -43.224 -84.522 0 0 0 
-89.356 -43.083 -80.762 0 0 0 
-88.419 -42.963 -77.379 0 0 0 
-87.551 -42.891 -75.276 0 0 0 
-86.705 -42.84 -73.891 0 0 0 
-85.847 -42.782 -72.279 0 0 0 
-84.995 -42.734 -70.986 0 0 0 
-84.082 -42.646 -68.656 0 0 0 
-83.215 -42.597 -67.495 0 0 0 
-82.352 -42.55 -66.366 0 0 0 
-81.45 -42.473 -64.487 0 0 0 
-80.582 -42.415 -63.398 0 0 0 
-79.694 -42.338 -61.945 0 0 0 
-78.81 -42.26 -60.589 0 0 0 
-77.956 -42.207 -59.862 0 0 0 
-77.044 -42.146 -58.296 0 0 0 
-76.139 -42.097 -56.763 0 0 0 
-75.3 -42.08 -56.17 0 0 0 
-74.439 -42.058 -55.111 0 0 0 
-73.568 -42.035 -53.87 0 0 0 
-72.722 -42.02 -53.04 0 0 0 
-71.891 -42.01 -52.456 0 0 0 
-71.038 -41.994 -51.461 0 0 0 
-70.191 -41.98 -50.56 0 0 0 
-69.364 -41.978 -49.782 0 0 0 
-68.555 -41.964 -49.2 0 0 0 
-67.744 -41.944 -48.53 0 0 0 
-66.931 -41.918 -47.774 0 0 0 
-66.126 -41.905 -47.286 0 0 0 
-65.324 -41.894 -46.848 0 0 0 
-64.51 -41.86 -46.073 0 0 0 
-63.699 -41.829 -45.425 0 0 0 
-62.899 -41.817 -45.079 0 0 0 
-62.093 -41.793 -44.498 0 0 0 
-61.293 -41.779 -44.047 0 0 0 
-60.494 -41.766 -43.616 0 0 0 
-59.693 -41.751 -43.101 0 0 0 
-58.906 -41.722 -42.43 0 0 0 
-58.132 -41.695 -41.846 0 0 0 
-57.366 -41.681 -41.549 0 0 0 
-56.604 -41.675 -41.411 0 0 0 
-55.839 -41.655 -40.913 0 0 0 
-55.079 -41.641 -40.562 0 0 0 
-54.321 -41.637 -40.424 0 0 0 
-53.541 -41.629 -40.13 0 0 0 
-52.748 -41.61 -39.635 0 0 0 
-51.953 -41.593 -39.203 0 0 0 
-51.159 -41.578 -38.803 0 0 0 
-50.358 -41.554 -38.205 0 0 0 
-49.557 -41.53 -37.643 0 0 0 
-48.766 -41.511 -37.21 0 0 0 
-47.988 -41.492 -36.88 0 0 0 
-47.188 -41.447 -35.991 0 0 0 
-46.406 -41.424 -35.596 0 0 0 
-45.619 -41.395 -35.071 0 0 0 
-44.831 -41.367 -34.564 0 0 0 
-44.046 -41.341 -34.125 0 0 0 
-43.249 -41.324 -33.995 0 0 0 
-42.442 -41.308 -33.946 0 0 0 
-41.635 -41.291 -33.863 0 0 0 
-40.817 -41.264 -33.554 0 0 0 
-40.004 -41.241 -33.339 0 0 0 
-39.189 -41.218 -33.087 0 0 0 
-38.366 -41.188 -32.664 0 0 0 
-37.581 -41.181 -32.631 0 0 0 
-36.794 -41.172 -32.57 0 0 0 
-36.009 -41.165 -32.529 0 0 0 
-35.212 -41.145 -32.154 0 0 0 
-34.426 -41.137 -32.074 0 0 0 
-33.639 -41.128 -31.946 0 0 0 
-32.848 -41.116 -31.719 0 0 0 
-32.06 -41.11 -31.6 0 0 0 
-31.277 -41.109 -31.633 0 0 0 
-30.487 -41.1 -31.417 0 0 0 
-29.703 -41.097 -31.4 0 0 0 
-28.921 -41.097 -31.455 0 0 0 
-28.146 -41.105 -31.813 0 0 0 
-27.386 -41.119 -32.11 0 0 0 
-26.633 -41.138 -32.455 0 0 0 
-25.881 -41.162 -32.958 0 0 0 
-25.122 -41.178 -33.193 0 0 0 
-24.361 -41.194 -33.395 0 0 0 
-23.6 -41.216 -33.834 0 0 0 
-22.835 -41.236 -34.217 0 0 0 
-22.071 -41.251 -34.516 0 0 0 
-21.306 -41.266 -34.818 0 0 0 
-20.541 -41.277 -34.984 0 0 0 
-19.777 -41.279 -34.824 0 0 0 
-19.011 -41.294 -35.183 0 0 0 
-18.246 -41.3 -35.155 0 0 0 
-17.474 -41.312 -35.55 0 0 0 
-16.69 -41.324 -36.072 0 0 0 
-15.894 -41.354 -37.449 0 0 0 
-15.089 -41.389 -39.082 0 0 0 
-14.303 -41.39 -39.137 0 0 0 
-13.529 -41.376 -38.565 0 0 0 
-12.775 -41.342 -37.032 0 0 0 
-11.997 -41.328 -36.611 0 0 0 
-11.188 -41.347 -37.667 0 0 0 
-10.356 -41.417 -40.282 0 0 0 
-9.567 -41.462 -41.276 0 0 0 
-8.78 -41.464 -41.379 0 0 0 
-7.993 -41.444 -41.02 0 0 0 
-7.208 -41.419 -40.513 0 0 0 
-6.421 -41.418 -40.757 0 0 0 
-5.629 -41.482 -42.489 0 0 0 
-4.84 -41.502 -43.223 0 0 0 
-4.054 -41.501 -43.481 0 0 0 
-3.268 -41.498 -43.689 0 0 0 
-2.482 -41.509 -44.233 0 0 0 
-1.698 -41.507 -44.374 0 0 0 
-0.918 -41.512 -44.549 0 0 0 
-0.138 -41.529 -45.049 0 0 0 
0.641 -41.544 -45.543 0 0 0 
1.419 -41.55 -45.839 0 0 0 
2.197 -41.566 -46.495 0 0 0 
2.973 -41.577 -47.097 0 0 0 
3.761 -41.589 -47.526 0 0 0 
4.554 -41.611 -48.233 0 0 0 
5.346 -41.636 -49.086 0 0 0 
6.139 -41.651 -49.536 0 0 0 
6.932 -41.675 -50.283 0 0 0 
7.73 -41.705 -51.102 0 0 0 
8.528 -41.731 -51.8 0 0 0 
9.31 -41.742 -52.392 0 0 0 
10.103 -41.779 -53.622 0 0 0 
10.894 -41.795 -54.202 0 0 0 
11.697 -41.83 -55.183 0 0 0 
12.504 -41.865 -56.106 0 0 0 
13.318 -41.905 -57.05 0 0 0 
14.133 -41.942 -57.897 0 0 0 
14.957 -42.004 -59.359 0 0 0 
15.756 -42.031 -60.117 0 0 0 
16.518 -42.06 -61.424 0 0 0 
17.278 -42.095 -62.965 0 0 0 
18.049 -42.118 -64.038 0 0 0 
18.816 -42.152 -65.497 0 0 0 
19.587 -42.19 -67.069 0 0 0 
20.366 -42.219 -68.298 0 0 0 
21.147 -42.25 -69.528 0 0 0 
22.012 -42.339 -71.63 0 0 0 
22.877 -42.405 -73.004 0 0 0 
23.761 -42.486 -74.654 0 0 0 
24.68 -42.6 -76.899 0 0 0 
25.611 -42.708 -78.998 0 0 0 
26.482 -42.796 -81.409 0 0 0 
27.292 -42.839 -83.304 0 0 0 
28.078 -42.923 -87.657 0 0 0 
28.957 -43.134 -92.713 0 0 0 
29.853 -43.29 -95.057 0 0 0 
-91.484 -42.527 -87.563 0 0 0 
-90.335 -42.355 -83.003 0 0 0 
-89.322 -42.239 -80.064 0 0 0 
-88.425 -42.14 -77.186 0 0 0 
-87.556 -42.07 -75.073 0 0 0 
-86.702 -42.013 -73.474 0 0 0 
-85.843 -41.957 -71.875 0 0 0 
-84.964 -41.888 -69.907 0 0 0 
-84.075 -41.827 -68.337 0 0 0 
-83.202 -41.778 -67.032 0 0 0 
-82.322 -41.725 -65.54 0 0 0 
-81.439 -41.669 -64.013 0 0 0 
-80.564 -41.61 -62.799 0 0 0 
-79.674 -41.536 -61.285 0 0 0 
-78.798 -41.469 -60.09 0 0 0 
-77.937 -41.421 -59.363 0 0 0 
-76.997 -41.342 -57.361 0 0 0 
-76.129 -41.305 -56.442 0 0 0 
-75.279 -41.282 -55.673 0 0 0 
-74.412 -41.254 -54.542 0 0 0 
-73.546 -41.228 -53.406 0 0 0 
-72.704 -41.211 -52.654 0 0 0 
-71.874 -41.198 -52.088 0 0 0 
-71.011 -41.175 -50.943 0 0 0 
-70.168 -41.16 -50.122 0 0 0 
-69.359 -41.157 -49.54 0 0 0 
-68.55 -41.144 -48.867 0 0 0 
-67.747 -41.136 -48.346 0 0 0 
-66.936 -41.115 -47.604 0 0 0 
-66.135 -41.108 -47.169 0 0 0 
-65.337 -41.102 -46.791 0 0 0 
-64.518 -41.059 -45.853 0 0 0 
-63.714 -41.039 -45.382 0 0 0 
-62.906 -41.012 -44.774 0 0 0 
-62.107 -40.999 -44.393 0 0 0 
-61.303 -40.978 -43.828 0 0 0 
-60.5 -40.957 -43.224 0 0 0 
-59.703 -40.946 -42.797 0 0 0 
-58.918 -40.922 -42.217 0 0 0 
-58.144 -40.892 -41.593 0 0 0 
-57.38 -40.88 -41.323 0 0 0 
-56.617 -40.871 -41.105 0 0 0 
-55.854 -40.851 -40.631 0 0 0 
-55.095 -40.839 -40.307 0 0 0 
-54.338 -40.83 -40.054 0 0 0 
-53.546 -40.823 -39.804 0 0 0 
-52.74 -40.801 -39.245 0 0 0 
-51.941 -40.787 -38.852 0 0 0 
-51.147 -40.779 -38.612 0 0 0 
-50.341 -40.757 -38.045 0 0 0 
-49.538 -40.737 -37.533 0 0 0 
-48.742 -40.718 -37.08 0 0 0 
-47.963 -40.699 -36.738 0 0 0 
-47.165 -40.656 -35.889 0 0 0 
-46.379 -40.63 -35.418 0 0 0 
-45.596 -40.606 -34.997 0 0 0 
-44.811 -40.581 -34.555 0 0 0 
-44.024 -40.555 -34.092 0 0 0 
-43.222 -40.533 -33.853 0 0 0 
-42.415 -40.516 -33.784 0 0 0 
-41.607 -40.499 -33.693 0 0 0 
-40.784 -40.466 -33.242 0 0 0 
-39.964 -40.438 -32.893 0 0 0 
-39.148 -40.415 -32.629 0 0 0 
-38.312 -40.374 -31.91 0 0 0 
-37.535 -40.371 -31.935 0 0 0 
-36.756 -40.367 -31.916 0 0 0 
-35.971 -40.356 -31.726 0 0 0 
-35.185 -40.344 -31.508 0 0 0 
-34.405 -40.338 -31.42 0 0 0 
-33.623 -40.329 -31.259 0 0 0 
-32.838 -40.321 -31.092 0 0 0 
-32.056 -40.32 -31.111 0 0 0 
-31.278 -40.324 -31.304 0 0 0 
-30.495 -40.323 -31.335 0 0 0 
-29.709 -40.319 -31.263 0 0 0 
-28.924 -40.314 -31.166 0 0 0 
-28.141 -40.314 -31.2 0 0 0 
-27.379 -40.323 -31.342 0 0 0 
-26.628 -40.34 -31.619 0 0 0 
-25.877 -40.364 -32.117 0 0 0 
-25.121 -40.382 -32.42 0 0 0 
-24.363 -40.398 -32.68 0 0 0 
-23.603 -40.421 -33.148 0 0 0 
-22.84 -40.436 -33.342 0 0 0 
-22.077 -40.452 -33.674 0 0 0 
-21.312 -40.468 -34.06 0 0 0 
-20.549 -40.477 -34.17 0 0 0 
-19.786 -40.483 -34.142 0 0 0 
-19.022 -40.494 -34.324 0 0 0 
-18.257 -40.503 -34.491 0 0 0 
-17.488 -40.512 -34.728 0 0 0 
-16.708 -40.518 -35.051 0 0 0 
-15.917 -40.544 -36.33 0 0 0 
-15.114 -40.58 -38.153 0 0 0 
-14.327 -40.584 -38.388 0 0 0 
-13.552 -40.574 -37.917 0 0 0 
-12.788 -40.553 -36.893 0 0 0 
-12.001 -40.55 -36.907 0 0 0 
-11.191 -40.573 -38.097 0 0 0 
-10.38 -40.605 -39.464 0 0 0 
-9.583 -40.631 -40.237 0 0 0 
-8.795 -40.652 -40.68 0 0 0 
-8.008 -40.649 -40.614 0 0 0 
-7.221 -40.648 -40.591 0 0 0 
-6.434 -40.645 -40.806 0 0 0 
-5.645 -40.675 -41.82 0 0 0 
-4.856 -40.691 -42.522 0 0 0 
-4.07 -40.695 -42.914 0 0 0 
-3.283 -40.696 -43.247 0 0 0 
-2.497 -40.697 -43.576 0 0 0 
-1.713 -40.707 -44.04 0 0 0 
-0.932 -40.718 -44.339 0 0 0 
-0.153 -40.728 -44.674 0 0 0 
0.627 -40.744 -45.214 0 0 0 
1.405 -40.753 -45.629 0 0 0 
2.183 -40.762 -46.09 0 0 0 
2.96 -40.773 -46.683 0 0 0 
3.751 -40.79 -47.327 0 0 0 
4.549 -40.809 -47.892 0 0 0 
5.347 -40.836 -48.739 0 0 0 
6.145 -40.857 -49.334 0 0 0 
6.943 -40.884 -50.092 0 0 0 
7.743 -40.916 -50.886 0 0 0 
8.542 -40.943 -51.569 0 0 0 
9.322 -40.959 -52.33 0 0 0 
10.108 -40.99 -53.437 0 0 0 
10.896 -41.003 -53.954 0 0 0 
11.693 -41.032 -54.86 0 0 0 
12.497 -41.071 -55.904 0 0 0 
13.302 -41.099 -56.623 0 0 0 
14.115 -41.14 -57.586 0 0 0 
14.931 -41.194 -58.907 0 0 0 
15.736 -41.231 -59.868 0 0 0 
16.513 -41.252 -60.766 0 0 0 
17.275 -41.296 -62.637 0 0 0 
18.051 -41.316 -63.591 0 0 0 
18.825 -41.347 -64.94 0 0 0 
19.6 -41.389 -66.672 0 0 0 
20.381 -41.423 -68.037 0 0 0 
21.165 -41.455 -69.319 0 0 0 
22.012 -41.534 -71.326 0 0 0 
22.873 -41.6 -72.706 0 0 0 
23.76 -41.69 -74.554 0 0 0 
24.668 -41.8 -76.726 0 0 0 
25.567 -41.881 -78.31 0 0 0 
26.475 -41.989 -80.784 0 0 0 
27.287 -42.035 -82.794 0 0 0 
28.085 -42.101 -86.196 0 0 0 
28.937 -42.298 -92.119 0 0 0 
29.853 -42.491 -95.101 0 0 0 
-91.407 -41.671 -86.331 0 0 0 
-90.286 -41.506 -82.116 0 0 0 
-89.312 -41.4 -79.413 0 0 0 
-88.425 -41.313 -76.819 0 0 0 
-87.563 -41.252 -74.965 0 0 0 
-86.69 -41.18 -72.826 0 0 0 
-85.844 -41.137 -71.63 0 0 0 
-84.94 -41.056 -69.293 0 0 0 
-84.062 -41.006 -67.918 0 0 0 
-83.183 -40.959 -66.466 0 0 0 
-82.304 -40.913 -64.953 0 0 0 
-81.429 -40.869 -63.553 0 0 0 
-80.541 -40.807 -62.081 0 0 0 
-79.652 -40.739 -60.594 0 0 0 
-78.782 -40.681 -59.639 0 0 0 
-77.895 -40.618 -58.542 0 0 0 
-76.981 -40.548 -56.955 0 0 0 
-76.116 -40.51 -56.092 0 0 0 
-75.248 -40.476 -55.043 0 0 0 
-74.403 -40.453 -54.287 0 0 0 
-73.533 -40.42 -53.094 0 0 0 
-72.687 -40.399 -52.301 0 0 0 
-71.849 -40.381 -51.608 0 0 0 
-70.99 -40.355 -50.555 0 0 0 
-70.159 -40.34 -49.933 0 0 0 
-69.349 -40.329 -49.103 0 0 0 
-68.545 -40.323 -48.495 0 0 0 
-67.744 -40.321 -47.996 0 0 0 
-66.936 -40.303 -47.268 0 0 0 
-66.141 -40.305 -46.952 0 0 0 
-65.336 -40.286 -46.315 0 0 0 
-64.526 -40.257 -45.604 0 0 0 
-63.721 -40.233 -45.073 0 0 0 
-62.913 -40.204 -44.436 0 0 0 
-62.118 -40.2 -44.203 0 0 0 
-61.307 -40.164 -43.362 0 0 0 
-60.512 -40.157 -43.03 0 0 0 
-59.715 -40.147 -42.617 0 0 0 
-58.933 -40.125 -42.1 0 0 0 
-58.159 -40.094 -41.435 0 0 0 
-57.393 -40.078 -41.095 0 0 0 
-56.631 -40.065 -40.778 0 0 0 
-55.87 -40.049 -40.398 0 0 0 
-55.111 -40.036 -40.069 0 0 0 
-54.347 -40.025 -39.768 0 0 0 
-53.55 -40.021 -39.586 0 0 0 
-52.734 -39.994 -38.899 0 0 0 
-51.936 -39.989 -38.699 0 0 0 
-51.138 -39.983 -38.482 0 0 0 
-50.326 -39.962 -37.908 0 0 0 
-49.518 -39.944 -37.425 0 0 0 
-48.719 -39.926 -36.978 0 0 0 
-47.941 -39.907 -36.647 0 0 0 
-47.146 -39.87 -35.908 0 0 0 
-46.358 -39.842 -35.372 0 0 0 
-45.575 -39.82 -34.979 0 0 0 
-44.788 -39.792 -34.479 0 0 0 
-44.003 -39.768 -34.057 0 0 0 
-43.2 -39.746 -33.81 0 0 0 
-42.388 -39.724 -33.61 0 0 0 
-41.569 -39.695 -33.258 0 0 0 
-40.744 -39.662 -32.785 0 0 0 
-39.921 -39.633 -32.368 0 0 0 
-39.093 -39.6 -31.832 0 0 0 
-38.279 -39.58 -31.62 0 0 0 
-37.507 -39.579 -31.644 0 0 0 
-36.735 -39.577 -31.654 0 0 0 
-35.953 -39.566 -31.411 0 0 0 
-35.172 -39.556 -31.18 0 0 0 
-34.393 -39.546 -30.962 0 0 0 
-33.619 -39.542 -30.868 0 0 0 
-32.838 -39.534 -30.685 0 0 0 
-32.055 -39.532 -30.657 0 0 0 
-31.283 -39.544 -31.119 0 0 0 
-30.507 -39.551 -31.416 0 0 0 
-29.72 -39.546 -31.299 0 0 0 
-28.931 -39.536 -31.006 0 0 0 
-28.144 -39.53 -30.832 0 0 0 
-27.378 -39.532 -30.687 0 0 0 
-26.631 -39.554 -31.151 0 0 0 
-25.88 -39.574 -31.553 0 0 0 
-25.126 -39.595 -32.006 0 0 0 
-24.369 -39.613 -32.299 0 0 0 
-23.609 -39.633 -32.671 0 0 0 
-22.848 -39.649 -32.925 0 0 0 
-22.084 -39.663 -33.187 0 0 0 
-21.319 -39.678 -33.553 0 0 0 
-20.556 -39.69 -33.767 0 0 0 
-19.793 -39.697 -33.809 0 0 0 
-19.029 -39.707 -33.994 0 0 0 
-18.266 -39.714 -34.087 0 0 0 
-17.499 -39.718 -34.072 0 0 0 
-16.724 -39.717 -34.053 0 0 0 
-15.939 -39.734 -35.012 0 0 0 
-15.148 -39.756 -36.2 0 0 0 
-14.356 -39.772 -37.152 0 0 0 
-13.574 -39.772 -37.166 0 0 0 
-12.797 -39.767 -36.919 0 0 0 
-12.003 -39.774 -37.349 0 0 0 
-11.202 -39.788 -38.089 0 0 0 
-10.398 -39.813 -39.125 0 0 0 
-9.605 -39.825 -39.465 0 0 0 
-8.81 -39.851 -40.193 0 0 0 
-8.023 -39.861 -40.331 0 0 0 
-7.235 -39.871 -40.516 0 0 0 
-6.448 -39.87 -40.79 0 0 0 
-5.659 -39.884 -41.489 0 0 0 
-4.872 -39.885 -41.841 0 0 0 
-4.085 -39.89 -42.292 0 0 0 
-3.298 -39.894 -42.738 0 0 0 
-2.512 -39.896 -43.128 0 0 0 
-1.727 -39.906 -43.604 0 0 0 
-0.946 -39.922 -44.077 0 0 0 
-0.166 -39.933 -44.437 0 0 0 
0.613 -39.944 -44.837 0 0 0 
1.392 -39.956 -45.358 0 0 0 
2.17 -39.964 -45.823 0 0 0 
2.947 -39.974 -46.432 0 0 0 
3.741 -39.991 -47.074 0 0 0 
4.544 -40.013 -47.722 0 0 0 
5.347 -40.037 -48.414 0 0 0 
6.15 -40.064 -49.138 0 0 0 
6.954 -40.092 -49.842 0 0 0 
7.757 -40.133 -50.842 0 0 0 
8.559 -40.156 -51.305 0 0 0 
9.334 -40.175 -52.214 0 0 0 
10.116 -40.203 -53.283 0 0 0 
10.9 -40.21 -53.674 0 0 0 
11.691 -40.235 -54.509 0 0 0 
12.49 -40.271 -55.55 0 0 0 
13.292 -40.3 -56.325 0 0 0 
14.097 -40.332 -57.122 0 0 0 
14.91 -40.389 -58.531 0 0 0 
15.713 -40.428 -59.569 0 0 0 
16.501 -40.449 -60.306 0 0 0 
17.269 -40.494 -62.235 0 0 0 
18.049 -40.514 -63.162 0 0 0 
18.829 -40.543 -64.403 0 0 0 
19.609 -40.591 -66.376 0 0 0 
20.397 -40.616 -67.426 0 0 0 
21.182 -40.657 -69.018 0 0 0 
22.01 -40.727 -70.95 0 0 0 
22.871 -40.797 -72.448 0 0 0 
23.741 -40.874 -74.041 0 0 0 
24.645 -40.988 -76.291 0 0 0 
25.528 -41.057 -77.647 0 0 0 
26.467 -41.183 -80.22 0 0 0 
27.28 -41.235 -82.419 0 0 0 
28.086 -41.288 -85.17 0 0 0 
28.9 -41.431 -91.009 0 0 0 
29.828 -41.641 -94.369 0 0 0 
-92.421 -40.954 -88.682 0 0 0 
-91.304 -40.799 -84.754 0 0 0 
-90.249 -40.662 -81.401 0 0 0 
-89.308 -40.565 -78.863 0 0 0 
-88.422 -40.483 -76.371 0 0 0 
-87.564 -40.429 -74.682 0 0 0 
-86.673 -40.344 -72.051 0 0 0 
-85.835 -40.309 -71.128 0 0 0 
-84.931 -40.236 -68.955 0 0 0 
-84.04 -40.183 -67.324 0 0 0 
-83.157 -40.139 -65.77 0 0 0 
-82.286 -40.107 -64.38 0 0 0 
-81.413 -40.07 -62.972 0 0 0 
-80.52 -40.011 -61.41 0 0 0 
-79.64 -39.953 -60.112 0 0 0 
-78.756 -39.885 -59.07 0 0 0 
-77.868 -39.819 -57.959 0 0 0 
-76.963 -39.749 -56.547 0 0 0 
-76.089 -39.704 -55.537 0 0 0 
-75.236 -39.675 -54.742 0 0 0 
-74.374 -39.641 -53.726 0 0 0 
-73.511 -39.606 -52.661 0 0 0 
-72.663 -39.581 -51.832 0 0 0 
-71.813 -39.555 -50.961 0 0 0 
-70.97 -39.533 -50.189 0 0 0 
-70.145 -39.506 -49.423 0 0 0 
-69.34 -39.504 -48.678 0 0 0 
-68.543 -39.509 -48.215 0 0 0 
-67.74 -39.501 -47.536 0 0 0 
-66.94 -39.497 -47.024 0 0 0 
-66.142 -39.493 -46.559 0 0 0 
-65.344 -39.484 -46.089 0 0 0 
-64.536 -39.457 -45.398 0 0 0 
-63.725 -39.421 -44.665 0 0 0 
-62.925 -39.408 -44.305 0 0 0 
-62.125 -39.392 -43.863 0 0 0 
-61.321 -39.368 -43.248 0 0 0 
-60.524 -39.358 -42.86 0 0 0 
-59.731 -39.355 -42.569 0 0 0 
-58.949 -39.332 -42.044 0 0 0 
-58.174 -39.296 -41.313 0 0 0 
-57.41 -39.282 -40.993 0 0 0 
-56.648 -39.269 -40.698 0 0 0 
-55.887 -39.251 -40.269 0 0 0 
-55.127 -39.238 -39.944 0 0 0 
-54.36 -39.226 -39.64 0 0 0 
-53.55 -39.214 -39.254 0 0 0 
-52.733 -39.193 -38.694 0 0 0 
-51.932 -39.192 -38.563 0 0 0 
-51.128 -39.188 -38.352 0 0 0 
-50.312 -39.168 -37.807 0 0 0 
-49.499 -39.153 -37.348 0 0 0 
-48.696 -39.134 -36.875 0 0 0 
-47.918 -39.117 -36.562 0 0 0 
-47.124 -39.081 -35.855 0 0 0 
-46.341 -39.059 -35.448 0 0 0 
-45.557 -39.036 -35.02 0 0 0 
-44.772 -39.012 -34.588 0 0 0 
-43.985 -38.987 -34.129 0 0 0 
-43.178 -38.959 -33.753 0 0 0 
-42.357 -38.929 -33.366 0 0 0 
-41.537 -38.9 -32.99 0 0 0 
-40.71 -38.865 -32.454 0 0 0 
-39.885 -38.835 -32 0 0 0 
-39.066 -38.811 -31.667 0 0 0 
-38.25 -38.79 -31.407 0 0 0 
-37.48 -38.787 -31.37 0 0 0 
-36.713 -38.786 -31.369 0 0 0 
-35.942 -38.783 -31.296 0 0 0 
-35.162 -38.769 -30.914 0 0 0 
-34.388 -38.762 -30.693 0 0 0 
-33.618 -38.757 -30.561 0 0 0 
-32.836 -38.744 -30.134 0 0 0 
-32.047 -38.735 -29.86 0 0 0 
-31.278 -38.75 -30.421 0 0 0 
-30.513 -38.771 -31.214 0 0 0 
-29.727 -38.766 -31.104 0 0 0 
-28.932 -38.748 -30.499 0 0 0 
-28.136 -38.727 -29.745 0 0 0 
-27.369 -38.726 -29.441 0 0 0 
-26.632 -38.758 -30.324 0 0 0 
-25.887 -38.791 -31.238 0 0 0 
-25.133 -38.81 -31.604 0 0 0 
-24.376 -38.826 -31.852 0 0 0 
-23.618 -38.844 -32.172 0 0 0 
-22.858 -38.859 -32.366 0 0 0 
-22.093 -38.874 -32.666 0 0 0 
-21.327 -38.892 -33.137 0 0 0 
-20.562 -38.907 -33.526 0 0 0 
-19.799 -38.916 -33.712 0 0 0 
-19.035 -38.927 -33.982 0 0 0 
-18.273 -38.933 -34.027 0 0 0 
-17.506 -38.936 -34.001 0 0 0 
-16.73 -38.937 -34.096 0 0 0 
-15.95 -38.945 -34.616 0 0 0 
-15.167 -38.956 -35.281 0 0 0 
-14.384 -38.963 -35.715 0 0 0 
-13.594 -38.975 -36.5 0 0 0 
-12.809 -38.98 -36.859 0 0 0 
-12.012 -38.991 -37.498 0 0 0 
-11.213 -39.004 -38.123 0 0 0 
-10.413 -39.025 -38.931 0 0 0 
-9.621 -39.037 -39.224 0 0 0 
-8.828 -39.054 -39.627 0 0 0 
-8.037 -39.078 -40.146 0 0 0 
-7.249 -39.09 -40.308 0 0 0 
-6.462 -39.088 -40.582 0 0 0 
-5.674 -39.094 -41.13 0 0 0 
-4.886 -39.098 -41.582 0 0 0 
-4.1 -39.094 -41.828 0 0 0 
-3.313 -39.099 -42.346 0 0 0 
-2.526 -39.103 -42.815 0 0 0 
-1.742 -39.107 -43.16 0 0 0 
-0.96 -39.126 -43.748 0 0 0 
-0.18 -39.139 -44.183 0 0 0 
0.599 -39.152 -44.675 0 0 0 
1.378 -39.161 -45.12 0 0 0 
2.156 -39.171 -45.686 0 0 0 
2.934 -39.18 -46.334 0 0 0 
3.731 -39.195 -46.932 0 0 0 
4.539 -39.215 -47.464 0 0 0 
5.347 -39.246 -48.363 0 0 0 
6.156 -39.271 -48.939 0 0 0 
6.965 -39.303 -49.694 0 0 0 
7.771 -39.349 -50.759 0 0 0 
8.576 -39.374 -51.212 0 0 0 
9.348 -39.387 -51.962 0 0 0 
10.124 -39.414 -53.088 0 0 0 
10.906 -39.422 -53.533 0 0 0 
11.693 -39.439 -54.184 0 0 0 
12.487 -39.475 -55.273 0 0 0 
13.285 -39.503 -56.065 0 0 0 
14.084 -39.526 -56.68 0 0 0 
14.893 -39.588 -58.246 0 0 0 
15.691 -39.622 -59.182 0 0 0 
16.484 -39.652 -60.105 0 0 0 
17.26 -39.694 -61.888 0 0 0 
18.043 -39.719 -62.977 0 0 0 
18.828 -39.744 -64.091 0 0 0 
19.616 -39.79 -65.957 0 0 0 
20.408 -39.817 -67.096 0 0 0 
21.198 -39.858 -68.688 0 0 0 
22.009 -39.918 -70.547 0 0 0 
22.863 -39.985 -71.993 0 0 0 
23.727 -40.061 -73.582 0 0 0 
24.624 -40.176 -75.874 0 0 0 
25.505 -40.247 -77.279 0 0 0 
26.408 -40.335 -78.99 0 0 0 
27.275 -40.425 -81.626 0 0 0 
28.083 -40.48 -84.405 0 0 0 
28.88 -40.539 -88.054 0 0 0 
29.704 -40.593 -90.583 0 0 0 
-92.442 -40.165 -88.995 0 0 0 
-91.24 -39.949 -83.793 0 0 0 
-90.223 -39.823 -80.857 0 0 0 
-89.293 -39.722 -78.024 0 0 0 
-88.409 -39.645 -75.586 0 0 0 
-87.537 -39.579 -73.499 0 0 0 
-86.672 -39.521 -71.723 0 0 0 
-85.808 -39.468 -70.139 0 0 0 
-84.913 -39.412 -68.526 0 0 0 
-84.02 -39.362 -66.92 0 0 0 
-83.139 -39.32 -65.462 0 0 0 
-82.251 -39.279 -63.82 0 0 0 
-81.381 -39.245 -62.532 0 0 0 
-80.493 -39.192 -61.059 0 0 0 
-79.595 -39.125 -59.54 0 0 0 
-78.72 -39.067 -58.598 0 0 0 
-77.838 -39.007 -57.518 0 0 0 
-76.937 -38.94 -56.106 0 0 0 
-76.067 -38.896 -55.129 0 0 0 
-75.209 -38.862 -54.231 0 0 0 
-74.348 -38.828 -53.218 0 0 0 
-73.487 -38.795 -52.17 0 0 0 
-72.64 -38.77 -51.345 0 0 0 
-71.797 -38.749 -50.557 0 0 0 
-70.969 -38.736 -49.975 0 0 0 
-70.146 -38.702 -48.977 0 0 0 
-69.347 -38.705 -48.476 0 0 0 
-68.546 -38.704 -47.937 0 0 0 
-67.747 -38.701 -47.428 0 0 0 
-66.941 -38.686 -46.724 0 0 0 
-66.145 -38.683 -46.326 0 0 0 
-65.348 -38.678 -45.927 0 0 0 
-64.538 -38.646 -45.126 0 0 0 
-63.734 -38.625 -44.592 0 0 0 
-62.935 -38.612 -44.199 0 0 0 
-62.136 -38.599 -43.797 0 0 0 
-61.335 -38.58 -43.248 0 0 0 
-60.539 -38.57 -42.858 0 0 0 
-59.745 -38.564 -42.539 0 0 0 
-58.959 -38.537 -41.947 0 0 0 
-58.183 -38.511 -41.416 0 0 0 
-57.413 -38.493 -41.042 0 0 0 
-56.644 -38.478 -40.688 0 0 0 
-55.877 -38.463 -40.333 0 0 0 
-55.109 -38.448 -39.936 0 0 0 
-54.338 -38.437 -39.649 0 0 0 
-53.53 -38.422 -39.209 0 0 0 
-52.719 -38.404 -38.682 0 0 0 
-51.922 -38.401 -38.521 0 0 0 
-51.119 -38.392 -38.211 0 0 0 
-50.31 -38.375 -37.739 0 0 0 
-49.504 -38.363 -37.348 0 0 0 
-48.703 -38.344 -36.882 0 0 0 
-47.921 -38.327 -36.562 0 0 0 
-47.127 -38.297 -35.932 0 0 0 
-46.342 -38.278 -35.568 0 0 0 
-45.557 -38.258 -35.2 0 0 0 
-44.769 -38.235 -34.751 0 0 0 
-43.975 -38.206 -34.178 0 0 0 
-43.17 -38.18 -33.816 0 0 0 
-42.349 -38.147 -33.311 0 0 0 
-41.53 -38.116 -32.87 0 0 0 
-40.705 -38.08 -32.256 0 0 0 
-39.89 -38.056 -31.905 0 0 0 
-39.079 -38.036 -31.65 0 0 0 
-38.27 -38.019 -31.439 0 0 0 
-37.496 -38.014 -31.366 0 0 0 
-36.722 -38.011 -31.324 0 0 0 
-35.951 -38.009 -31.337 0 0 0 
-35.172 -38 -31.11 0 0 0 
-34.391 -37.988 -30.776 0 0 0 
-33.613 -37.978 -30.488 0 0 0 
-32.829 -37.964 -30.072 0 0 0 
-32.041 -37.956 -29.74 0 0 0 
-31.266 -37.96 -29.908 0 0 0 
-30.487 -37.961 -29.981 0 0 0 
-29.712 -37.967 -30.201 0 0 0 
-28.929 -37.963 -30.074 0 0 0 
-28.144 -37.956 -29.798 0 0 0 
-27.374 -37.951 -29.373 0 0 0 
-26.637 -37.983 -30.237 0 0 0 
-25.891 -38.017 -31.248 0 0 0 
-25.137 -38.037 -31.694 0 0 0 
-24.379 -38.045 -31.645 0 0 0 
-23.622 -38.053 -31.575 0 0 0 
-22.866 -38.058 -31.376 0 0 0 
-22.101 -38.077 -31.812 0 0 0 
-21.336 -38.098 -32.415 0 0 0 
-20.569 -38.123 -33.313 0 0 0 
-19.804 -38.138 -33.741 0 0 0 
-19.041 -38.147 -33.93 0 0 0 
-18.279 -38.152 -33.901 0 0 0 
-17.511 -38.158 -34.007 0 0 0 
-16.734 -38.162 -34.339 0 0 0 
-15.955 -38.167 -34.641 0 0 0 
-15.173 -38.175 -35.228 0 0 0 
-14.392 -38.179 -35.526 0 0 0 
-13.604 -38.191 -36.317 0 0 0 
-12.815 -38.202 -37.043 0 0 0 
-12.019 -38.21 -37.643 0 0 0 
-11.222 -38.222 -38.299 0 0 0 
-10.425 -38.236 -38.912 0 0 0 
-9.634 -38.245 -39.165 0 0 0 
-8.844 -38.256 -39.451 0 0 0 
-8.051 -38.276 -40.012 0 0 0 
-7.264 -38.287 -40.193 0 0 0 
-6.477 -38.285 -40.414 0 0 0 
-5.69 -38.298 -41.071 0 0 0 
-4.903 -38.299 -41.393 0 0 0 
-4.117 -38.296 -41.593 0 0 0 
-3.33 -38.303 -42.117 0 0 0 
-2.543 -38.31 -42.666 0 0 0 
-1.757 -38.315 -43.029 0 0 0 
-0.973 -38.329 -43.426 0 0 0 
-0.19 -38.347 -44.057 0 0 0 
0.593 -38.36 -44.582 0 0 0 
1.376 -38.366 -44.878 0 0 0 
2.157 -38.379 -45.522 0 0 0 
2.938 -38.389 -46.165 0 0 0 
3.735 -38.404 -46.791 0 0 0 
4.539 -38.423 -47.361 0 0 0 
5.343 -38.449 -48.165 0 0 0 
6.148 -38.471 -48.778 0 0 0 
6.952 -38.498 -49.479 0 0 0 
7.756 -38.533 -50.374 0 0 0 
8.558 -38.566 -51.073 0 0 0 
9.335 -38.576 -51.616 0 0 0 
10.116 -38.606 -52.692 0 0 0 
10.9 -38.621 -53.268 0 0 0 
11.687 -38.638 -53.857 0 0 0 
12.481 -38.676 -54.982 0 0 0 
13.278 -38.707 -55.838 0 0 0 
14.076 -38.731 -56.485 0 0 0 
14.881 -38.785 -57.876 0 0 0 
15.679 -38.823 -58.946 0 0 0 
16.473 -38.851 -59.772 0 0 0 
17.257 -38.889 -61.31 0 0 0 
18.043 -38.919 -62.616 0 0 0 
18.831 -38.94 -63.594 0 0 0 
19.623 -38.983 -65.325 0 0 0 
20.418 -39.017 -66.735 0 0 0 
21.212 -39.051 -68.045 0 0 0 
22.007 -39.099 -69.817 0 0 0 
22.86 -39.171 -71.492 0 0 0 
23.715 -39.238 -72.904 0 0 0 
24.613 -39.352 -75.241 0 0 0 
25.501 -39.437 -76.953 0 0 0 
26.395 -39.521 -78.612 0 0 0 
27.278 -39.617 -81.091 0 0 0 
28.085 -39.676 -84.027 0 0 0 
28.888 -39.723 -86.91 0 0 0 
29.692 -39.747 -89 0 0 0 
-92.393 -39.336 -88.369 0 0 0 
-91.243 -39.134 -83.729 0 0 0 
-90.19 -38.977 -80.195 0 0 0 
-89.282 -38.885 -77.311 0 0 0 
-88.395 -38.808 -74.812 0 0 0 
-87.528 -38.748 -72.888 0 0 0 
-86.663 -38.693 -71.216 0 0 0 
-85.779 -38.635 -69.466 0 0 0 
-84.886 -38.585 -67.961 0 0 0 
-84 -38.541 -66.526 0 0 0 
-83.108 -38.496 -64.943 0 0 0 
-82.222 -38.455 -63.405 0 0 0 
-81.348 -38.419 -62.095 0 0 0 
-80.46 -38.371 -60.615 0 0 0 
-79.56 -38.304 -59.128 0 0 0 
-78.677 -38.244 -57.997 0 0 0 
-77.806 -38.194 -57.034 0 0 0 
-76.906 -38.127 -55.603 0 0 0 
-76.05 -38.09 -54.811 0 0 0 
-75.174 -38.043 -53.613 0 0 0 
-74.321 -38.012 -52.698 0 0 0 
-73.469 -37.984 -51.781 0 0 0 
-72.622 -37.961 -50.923 0 0 0 
-71.781 -37.942 -50.126 0 0 0 
-70.969 -37.93 -49.606 0 0 0 
-70.152 -37.904 -48.729 0 0 0 
-69.352 -37.904 -48.214 0 0 0 
-68.55 -37.899 -47.666 0 0 0 
-67.749 -37.893 -47.13 0 0 0 
-66.946 -37.88 -46.507 0 0 0 
-66.151 -37.881 -46.215 0 0 0 
-65.353 -37.874 -45.776 0 0 0 
-64.545 -37.845 -45.01 0 0 0 
-63.744 -37.83 -44.548 0 0 0 
-62.944 -37.815 -44.078 0 0 0 
-62.147 -37.804 -43.693 0 0 0 
-61.346 -37.785 -43.132 0 0 0 
-60.551 -37.776 -42.763 0 0 0 
-59.755 -37.766 -42.383 0 0 0 
-58.969 -37.743 -41.875 0 0 0 
-58.188 -37.715 -41.323 0 0 0 
-57.414 -37.702 -41.028 0 0 0 
-56.641 -37.688 -40.703 0 0 0 
-55.866 -37.672 -40.301 0 0 0 
-55.09 -37.656 -39.895 0 0 0 
-54.316 -37.649 -39.678 0 0 0 
-53.512 -37.634 -39.232 0 0 0 
-52.705 -37.614 -38.664 0 0 0 
-51.909 -37.607 -38.424 0 0 0 
