ply
format ascii 1.0
comment VCGLIB generated
element vertex 1693
property float x
property float y
property float z
property float nx
property float ny
property float nz
element face 0
property list uchar int vertex_indices
end_header
16.394 1.854 -32.551 0 0 0 
17.18 1.85 -32.933 0 0 0 
17.965 1.847 -33.211 0 0 0 
18.754 1.838 -33.895 0 0 0 
19.539 1.844 -33.903 0 0 0 
20.332 1.842 -34.565 0 0 0 
21.127 1.841 -35.538 0 0 0 
21.945 1.829 -38.608 0 0 0 
22.752 1.857 -40.827 0 0 0 
23.55 1.901 -42.095 0 0 0 
24.351 1.945 -43.531 0 0 0 
25.163 2.002 -45.919 0 0 0 
25.966 2.032 -47.248 0 0 0 
26.76 2.045 -47.752 0 0 0 
27.566 2.067 -48.866 0 0 0 
28.382 2.07 -50.327 0 0 0 
29.19 2.025 -51.262 0 0 0 
30.009 1.954 -52.55 0 0 0 
30.82 1.907 -53.342 0 0 0 
31.63 1.87 -54.031 0 0 0 
32.438 1.84 -54.638 0 0 0 
33.248 1.813 -55.277 0 0 0 
34.058 1.79 -55.901 0 0 0 
34.874 1.764 -56.801 0 0 0 
35.686 1.741 -57.717 0 0 0 
36.519 1.697 -59.625 0 0 0 
37.325 1.697 -60.714 0 0 0 
38.135 1.706 -62.094 0 0 0 
38.963 1.716 -64.194 0 0 0 
39.801 1.723 -66.308 0 0 0 
40.634 1.725 -67.623 0 0 0 
41.48 1.722 -69.505 0 0 0 
42.339 1.721 -72.818 0 0 0 
43.172 1.727 -74.916 0 0 0 
43.998 1.739 -76.729 0 0 0 
44.816 1.754 -78.218 0 0 0 
-96.597 1.863 -92.965 0 0 0 
-95.356 1.985 -86.64 0 0 0 
-94.045 2.099 -80.566 0 0 0 
-93.07 2.133 -76.92 0 0 0 
-92.181 2.152 -74.675 0 0 0 
-91.282 2.172 -72.02 0 0 0 
-90.417 2.186 -70.186 0 0 0 
-89.457 2.212 -67.915 0 0 0 
-88.511 2.234 -65.975 0 0 0 
-87.608 2.25 -64.636 0 0 0 
-86.679 2.267 -62.981 0 0 0 
-85.802 2.278 -61.965 0 0 0 
-84.924 2.288 -60.92 0 0 0 
-84.054 2.298 -59.909 0 0 0 
-83.205 2.309 -58.76 0 0 0 
-82.354 2.323 -57.514 0 0 0 
-81.498 2.341 -56.131 0 0 0 
-80.645 2.361 -54.629 0 0 0 
-79.79 2.388 -52.775 0 0 0 
-78.961 2.41 -51.386 0 0 0 
-78.145 2.432 -50.142 0 0 0 
-77.336 2.441 -49.479 0 0 0 
-76.476 2.445 -48.147 0 0 0 
-75.518 2.443 -45.466 0 0 0 
-74.566 2.44 -42.966 0 0 0 
-73.737 2.444 -42.212 0 0 0 
-72.931 2.448 -41.791 0 0 0 
-72.055 2.455 -40.215 0 0 0 
-71.2 2.455 -38.788 0 0 0 
-70.316 2.445 -36.779 0 0 0 
-69.504 2.444 -36.07 0 0 0 
-68.695 2.444 -35.455 0 0 0 
-67.936 2.453 -35.755 0 0 0 
-67.173 2.461 -35.977 0 0 0 
-66.381 2.463 -35.672 0 0 0 
-65.527 2.451 -34.206 0 0 0 
-64.71 2.445 -33.405 0 0 0 
-63.921 2.442 -33.141 0 0 0 
-63.156 2.445 -33.324 0 0 0 
-62.36 2.439 -32.923 0 0 0 
-61.549 2.428 -32.234 0 0 0 
-60.726 2.412 -31.311 0 0 0 
-59.948 2.409 -31.237 0 0 0 
-59.213 2.422 -31.98 0 0 0 
-58.469 2.437 -32.736 0 0 0 
-57.696 2.442 -32.919 0 0 0 
-56.914 2.443 -32.934 0 0 0 
-56.143 2.447 -33.163 0 0 0 
-55.345 2.444 -32.858 0 0 0 
-54.525 2.439 -32.117 0 0 0 
-53.714 2.435 -31.512 0 0 0 
-52.924 2.428 -31.265 0 0 0 
-52.15 2.424 -31.347 0 0 0 
-51.375 2.42 -31.407 0 0 0 
-50.598 2.415 -31.434 0 0 0 
-49.824 2.41 -31.535 0 0 0 
-49.061 2.403 -31.904 0 0 0 
-48.295 2.4 -32.297 0 0 0 
-47.53 2.399 -32.755 0 0 0 
-46.757 2.398 -33.022 0 0 0 
-45.974 2.399 -33.027 0 0 0 
-45.189 2.4 -32.973 0 0 0 
-44.399 2.403 -32.809 0 0 0 
-43.624 2.401 -33.023 0 0 0 
-42.845 2.4 -33.163 0 0 0 
-42.054 2.403 -32.992 0 0 0 
-41.255 2.409 -32.609 0 0 0 
-40.458 2.415 -32.26 0 0 0 
-39.661 2.42 -31.925 0 0 0 
-38.854 2.43 -31.299 0 0 0 
-38.021 2.446 -29.899 0 0 0 
-37.219 2.435 -28.78 0 0 0 
-36.423 2.428 -27.887 0 0 0 
-35.626 2.42 -26.742 0 0 0 
-34.818 2.404 -24.295 0 0 0 
-33.899 2.471 -15.752 0 0 0 
-33.103 2.494 -14.903 0 0 0 
-32.334 2.498 -14.965 0 0 0 
-31.544 2.519 -14.067 0 0 0 
-30.749 2.544 -12.878 0 0 0 
-29.969 2.555 -12.279 0 0 0 
-29.192 2.564 -11.803 0 0 0 
-28.413 2.573 -11.209 0 0 0 
-27.641 2.576 -10.922 0 0 0 
-26.881 2.58 -10.822 0 0 0 
-26.123 2.583 -10.828 0 0 0 
-25.364 2.586 -10.804 0 0 0 
-24.606 2.589 -10.774 0 0 0 
-23.851 2.591 -10.994 0 0 0 
-23.095 2.593 -11.207 0 0 0 
-22.343 2.595 -11.457 0 0 0 
-21.599 2.592 -11.649 0 0 0 
-20.853 2.591 -11.855 0 0 0 
-20.107 2.591 -12.733 0 0 0 
-19.351 2.602 -15.982 0 0 0 
-18.573 2.621 -20.419 0 0 0 
-17.828 2.597 -25 0 0 0 
-17.071 2.581 -27.823 0 0 0 
-16.304 2.573 -29.156 0 0 0 
-15.534 2.569 -29.859 0 0 0 
-14.762 2.569 -30.107 0 0 0 
-13.991 2.571 -30.242 0 0 0 
-13.223 2.574 -30.521 0 0 0 
-12.457 2.579 -30.876 0 0 0 
-11.691 2.587 -31.267 0 0 0 
-10.92 2.595 -31.471 0 0 0 
-10.15 2.604 -31.734 0 0 0 
-9.383 2.617 -32.222 0 0 0 
-8.598 2.616 -31.706 0 0 0 
-7.807 2.608 -30.832 0 0 0 
-7.024 2.605 -30.506 0 0 0 
-6.235 2.594 -30.126 0 0 0 
-5.453 2.592 -30.232 0 0 0 
-4.669 2.586 -30.14 0 0 0 
-3.886 2.581 -30.118 0 0 0 
-3.103 2.572 -29.835 0 0 0 
-2.32 2.571 -30.043 0 0 0 
-1.541 2.584 -30.561 0 0 0 
-0.762 2.595 -30.848 0 0 0 
0.019 2.576 -29.583 0 0 0 
0.798 2.571 -29.026 0 0 0 
1.578 2.571 -28.716 0 0 0 
2.357 2.57 -28.358 0 0 0 
3.137 2.571 -28.096 0 0 0 
3.909 2.571 -27.976 0 0 0 
4.683 2.581 -28.495 0 0 0 
5.458 2.588 -29.205 0 0 0 
6.235 2.591 -29.727 0 0 0 
7.012 2.592 -30.403 0 0 0 
7.788 2.591 -30.691 0 0 0 
8.563 2.59 -30.506 0 0 0 
9.342 2.6 -30.587 0 0 0 
10.12 2.61 -30.66 0 0 0 
10.9 2.618 -30.887 0 0 0 
11.681 2.626 -31.062 0 0 0 
12.462 2.631 -31.321 0 0 0 
13.248 2.631 -31.807 0 0 0 
14.034 2.627 -32.211 0 0 0 
14.821 2.621 -32.69 0 0 0 
15.61 2.614 -33.247 0 0 0 
16.398 2.606 -33.865 0 0 0 
17.184 2.602 -34.272 0 0 0 
17.967 2.6 -34.522 0 0 0 
18.75 2.599 -34.699 0 0 0 
19.532 2.611 -34.387 0 0 0 
20.321 2.616 -34.72 0 0 0 
21.121 2.615 -35.952 0 0 0 
21.929 2.612 -38.159 0 0 0 
22.735 2.625 -40.194 0 0 0 
23.535 2.674 -41.557 0 0 0 
24.34 2.728 -43.4 0 0 0 
25.153 2.784 -45.76 0 0 0 
25.952 2.81 -46.823 0 0 0 
26.746 2.824 -47.374 0 0 0 
27.553 2.848 -48.556 0 0 0 
28.359 2.864 -49.458 0 0 0 
29.176 2.83 -50.903 0 0 0 
29.989 2.773 -51.884 0 0 0 
30.802 2.722 -52.768 0 0 0 
31.616 2.676 -53.633 0 0 0 
32.427 2.641 -54.393 0 0 0 
33.234 2.618 -54.899 0 0 0 
34.05 2.587 -55.789 0 0 0 
34.867 2.561 -56.73 0 0 0 
35.675 2.543 -57.477 0 0 0 
36.508 2.501 -59.397 0 0 0 
37.317 2.496 -60.562 0 0 0 
38.127 2.507 -62.155 0 0 0 
38.954 2.516 -64.244 0 0 0 
39.794 2.522 -66.4 0 0 0 
40.633 2.524 -67.944 0 0 0 
41.478 2.519 -69.711 0 0 0 
42.335 2.518 -73.172 0 0 0 
43.17 2.525 -75.548 0 0 0 
43.992 2.537 -77.181 0 0 0 
-96.626 2.66 -93.602 0 0 0 
-95.37 2.786 -86.825 0 0 0 
-94.157 2.873 -81.91 0 0 0 
-93.089 2.927 -77.395 0 0 0 
-92.203 2.944 -75.231 0 0 0 
-91.298 2.963 -72.455 0 0 0 
-90.414 2.978 -70.097 0 0 0 
-89.458 3.003 -67.927 0 0 0 
-88.506 3.027 -65.895 0 0 0 
-87.6 3.043 -64.512 0 0 0 
-86.657 3.062 -62.666 0 0 0 
-85.789 3.071 -61.774 0 0 0 
-84.895 3.084 -60.498 0 0 0 
-84.052 3.091 -59.802 0 0 0 
-83.194 3.104 -58.41 0 0 0 
-82.357 3.115 -57.429 0 0 0 
-81.499 3.134 -55.91 0 0 0 
-80.631 3.159 -53.944 0 0 0 
-79.785 3.183 -52.251 0 0 0 
-78.935 3.213 -50.272 0 0 0 
-78.125 3.223 -49.577 0 0 0 
-77.325 3.229 -49.201 0 0 0 
-76.445 3.233 -47.597 0 0 0 
-75.538 3.233 -45.683 0 0 0 
-74.618 3.232 -43.584 0 0 0 
-73.819 3.236 -43.291 0 0 0 
-72.991 3.24 -42.523 0 0 0 
-72.106 3.248 -40.776 0 0 0 
-71.244 3.251 -39.288 0 0 0 
-70.346 3.24 -37.064 0 0 0 
-69.529 3.238 -36.298 0 0 0 
-68.719 3.237 -35.653 0 0 0 
-67.95 3.244 -35.769 0 0 0 
-67.172 3.249 -35.708 0 0 0 
-66.35 3.244 -34.846 0 0 0 
-65.503 3.231 -33.533 0 0 0 
-64.712 3.23 -33.237 0 0 0 
-63.947 3.235 -33.414 0 0 0 
-63.185 3.239 -33.656 0 0 0 
-62.395 3.236 -33.376 0 0 0 
-61.6 3.231 -33.008 0 0 0 
-60.806 3.225 -32.644 0 0 0 
-60.03 3.224 -32.622 0 0 0 
-59.278 3.233 -33.043 0 0 0 
-58.535 3.245 -33.775 0 0 0 
-57.759 3.246 -33.917 0 0 0 
-56.993 3.248 -34.233 0 0 0 
-56.208 3.244 -34.197 0 0 0 
-55.396 3.236 -33.642 0 0 0 
-54.59 3.229 -33.179 0 0 0 
-53.753 3.218 -32.083 0 0 0 
-52.941 3.209 -31.425 0 0 0 
-52.161 3.206 -31.401 0 0 0 
-51.383 3.202 -31.442 0 0 0 
-50.601 3.199 -31.385 0 0 0 
-49.824 3.195 -31.425 0 0 0 
-49.063 3.19 -31.865 0 0 0 
-48.304 3.186 -32.428 0 0 0 
-47.552 3.181 -33.184 0 0 0 
-46.778 3.178 -33.433 0 0 0 
-45.992 3.178 -33.346 0 0 0 
-45.2 3.179 -33.138 0 0 0 
-44.41 3.18 -32.962 0 0 0 
-43.626 3.18 -32.938 0 0 0 
-42.842 3.181 -32.971 0 0 0 
-42.051 3.183 -32.824 0 0 0 
-41.253 3.189 -32.476 0 0 0 
-40.456 3.194 -32.154 0 0 0 
-39.655 3.2 -31.709 0 0 0 
-38.853 3.207 -31.212 0 0 0 
-38.028 3.22 -30.119 0 0 0 
-37.229 3.215 -29.369 0 0 0 
-36.434 3.209 -28.613 0 0 0 
-35.63 3.197 -26.928 0 0 0 
-34.811 3.177 -23.549 0 0 0 
-33.909 3.235 -16.233 0 0 0 
-33.116 3.254 -15.531 0 0 0 
-32.342 3.261 -15.459 0 0 0 
-31.555 3.279 -14.704 0 0 0 
-30.754 3.307 -13.245 0 0 0 
-29.974 3.319 -12.694 0 0 0 
-29.196 3.328 -12.229 0 0 0 
-28.419 3.336 -11.722 0 0 0 
-27.643 3.342 -11.292 0 0 0 
-26.881 3.347 -11.24 0 0 0 
-26.12 3.351 -11.23 0 0 0 
-25.361 3.354 -11.328 0 0 0 
-24.6 3.359 -11.3 0 0 0 
-23.841 3.362 -11.455 0 0 0 
-23.082 3.366 -11.623 0 0 0 
-22.329 3.367 -11.816 0 0 0 
-21.585 3.365 -11.918 0 0 0 
-20.841 3.364 -12.277 0 0 0 
-20.096 3.364 -13.131 0 0 0 
-19.339 3.377 -17.038 0 0 0 
-18.569 3.391 -21.042 0 0 0 
-17.83 3.367 -25.842 0 0 0 
-17.076 3.352 -28.689 0 0 0 
-16.309 3.346 -29.861 0 0 0 
-15.541 3.348 -30.199 0 0 0 
-14.769 3.351 -30.281 0 0 0 
-13.997 3.354 -30.402 0 0 0 
-13.235 3.359 -30.879 0 0 0 
-12.469 3.365 -31.235 0 0 0 
-11.696 3.371 -31.408 0 0 0 
-10.924 3.378 -31.637 0 0 0 
-10.15 3.384 -31.775 0 0 0 
-9.385 3.397 -32.42 0 0 0 
-8.605 3.401 -32.291 0 0 0 
-7.814 3.396 -31.534 0 0 0 
-7.034 3.397 -31.456 0 0 0 
-6.243 3.386 -30.951 0 0 0 
-5.459 3.383 -30.858 0 0 0 
-4.672 3.372 -30.398 0 0 0 
-3.889 3.367 -30.298 0 0 0 
-3.107 3.364 -30.273 0 0 0 
-2.329 3.382 -31.312 0 0 0 
-1.551 3.404 -32.341 0 0 0 
-0.77 3.404 -32.228 0 0 0 
0.012 3.379 -30.707 0 0 0 
0.791 3.368 -29.861 0 0 0 
1.569 3.364 -29.441 0 0 0 
2.348 3.361 -28.988 0 0 0 
3.126 3.362 -28.79 0 0 0 
3.9 3.365 -28.839 0 0 0 
4.674 3.372 -29.3 0 0 0 
5.449 3.375 -29.528 0 0 0 
6.223 3.376 -29.61 0 0 0 
6.998 3.376 -29.807 0 0 0 
7.775 3.377 -30.186 0 0 0 
8.551 3.378 -30.228 0 0 0 
9.329 3.387 -30.402 0 0 0 
10.107 3.394 -30.496 0 0 0 
10.888 3.399 -30.946 0 0 0 
11.668 3.403 -31.099 0 0 0 
12.449 3.406 -31.322 0 0 0 
13.232 3.406 -31.676 0 0 0 
14.02 3.399 -32.258 0 0 0 
14.808 3.393 -32.739 0 0 0 
15.598 3.384 -33.411 0 0 0 
16.388 3.376 -34.112 0 0 0 
17.175 3.371 -34.603 0 0 0 
17.965 3.364 -35.271 0 0 0 
18.751 3.361 -35.718 0 0 0 
19.532 3.373 -35.491 0 0 0 
20.321 3.379 -35.867 0 0 0 
21.116 3.383 -36.801 0 0 0 
21.915 3.388 -38.241 0 0 0 
22.711 3.399 -39.384 0 0 0 
23.506 3.426 -40.476 0 0 0 
24.331 3.511 -43.807 0 0 0 
25.151 3.571 -46.394 0 0 0 
25.944 3.585 -46.867 0 0 0 
26.735 3.596 -47.171 0 0 0 
27.546 3.622 -48.489 0 0 0 
28.348 3.635 -49.167 0 0 0 
29.163 3.628 -50.449 0 0 0 
29.977 3.573 -51.487 0 0 0 
30.789 3.525 -52.321 0 0 0 
31.601 3.482 -53.16 0 0 0 
32.416 3.441 -54.103 0 0 0 
33.22 3.422 -54.509 0 0 0 
34.038 3.387 -55.56 0 0 0 
34.852 3.363 -56.437 0 0 0 
35.664 3.342 -57.329 0 0 0 
36.496 3.304 -59.25 0 0 0 
37.31 3.298 -60.802 0 0 0 
38.119 3.307 -62.26 0 0 0 
38.945 3.313 -64.373 0 0 0 
39.789 3.314 -66.931 0 0 0 
40.623 3.312 -68.233 0 0 0 
41.473 3.305 -70.319 0 0 0 
42.327 3.309 -73.622 0 0 0 
43.167 3.319 -76.354 0 0 0 
43.983 3.328 -77.391 0 0 0 
-96.642 3.464 -94.048 0 0 0 
-95.424 3.576 -87.541 0 0 0 
-94.193 3.662 -82.362 0 0 0 
-93.119 3.719 -78.17 0 0 0 
-92.212 3.738 -75.486 0 0 0 
-91.309 3.755 -72.791 0 0 0 
-90.418 3.77 -70.327 0 0 0 
-89.464 3.795 -68.052 0 0 0 
-88.532 3.815 -66.27 0 0 0 
-87.594 3.835 -64.441 0 0 0 
-86.657 3.853 -62.667 0 0 0 
-85.782 3.863 -61.666 0 0 0 
-84.884 3.877 -60.315 0 0 0 
-84.043 3.884 -59.505 0 0 0 
-83.195 3.895 -58.27 0 0 0 
-82.356 3.907 -57.135 0 0 0 
-81.496 3.926 -55.389 0 0 0 
-80.632 3.95 -53.357 0 0 0 
-79.758 3.982 -50.846 0 0 0 
-78.928 4 -49.68 0 0 0 
-78.107 4.008 -49.023 0 0 0 
-77.297 4.015 -48.576 0 0 0 
-76.402 4.02 -46.797 0 0 0 
-75.528 4.023 -45.379 0 0 0 
-74.676 4.025 -44.274 0 0 0 
-73.861 4.03 -43.72 0 0 0 
-73.013 4.035 -42.587 0 0 0 
-72.128 4.045 -40.762 0 0 0 
-71.281 4.051 -39.533 0 0 0 
-70.398 4.042 -37.659 0 0 0 
-69.539 4.034 -36.187 0 0 0 
-68.741 4.035 -35.779 0 0 0 
-67.951 4.036 -35.501 0 0 0 
-67.148 4.034 -34.998 0 0 0 
-66.287 4.017 -33.485 0 0 0 
-65.463 4.007 -32.612 0 0 0 
-64.676 4.005 -32.372 0 0 0 
-63.929 4.014 -32.864 0 0 0 
-63.165 4.019 -33.062 0 0 0 
-62.393 4.021 -33.116 0 0 0 
-61.612 4.021 -33.019 0 0 0 
-60.839 4.023 -33.046 0 0 0 
-60.059 4.023 -32.95 0 0 0 
-59.309 4.034 -33.406 0 0 0 
-58.54 4.034 -33.658 0 0 0 
-57.779 4.036 -34.056 0 0 0 
-56.995 4.031 -34.025 0 0 0 
-56.21 4.025 -33.995 0 0 0 
-55.403 4.014 -33.526 0 0 0 
-54.612 4.008 -33.361 0 0 0 
-53.816 4.001 -33.071 0 0 0 
-52.998 3.992 -32.335 0 0 0 
-52.213 3.989 -32.253 0 0 0 
-51.451 3.987 -32.673 0 0 0 
-50.685 3.984 -33.015 0 0 0 
-49.905 3.979 -33.059 0 0 0 
-49.11 3.976 -32.735 0 0 0 
-48.336 3.972 -32.936 0 0 0 
-47.576 3.966 -33.506 0 0 0 
-46.822 3.958 -34.223 0 0 0 
-46.051 3.951 -34.537 0 0 0 
-45.261 3.948 -34.39 0 0 0 
-44.457 3.949 -33.878 0 0 0 
-43.664 3.948 -33.64 0 0 0 
-42.867 3.953 -33.381 0 0 0 
-42.064 3.959 -32.93 0 0 0 
-41.265 3.964 -32.587 0 0 0 
-40.465 3.969 -32.184 0 0 0 
-39.665 3.974 -31.812 0 0 0 
-38.861 3.979 -31.297 0 0 0 
-38.049 3.987 -30.527 0 0 0 
-37.243 3.991 -29.85 0 0 0 
-36.45 3.987 -29.283 0 0 0 
-35.637 3.974 -27.131 0 0 0 
-34.787 3.947 -21.525 0 0 0 
-33.905 4.013 -16.153 0 0 0 
-33.118 4.025 -15.749 0 0 0 
-32.345 4.03 -15.769 0 0 0 
-31.555 4.049 -14.895 0 0 0 
-30.763 4.069 -13.899 0 0 0 
-29.977 4.084 -13.107 0 0 0 
-29.197 4.094 -12.587 0 0 0 
-28.42 4.102 -12.132 0 0 0 
-27.643 4.11 -11.662 0 0 0 
-26.879 4.115 -11.64 0 0 0 
-26.116 4.12 -11.655 0 0 0 
-25.354 4.124 -11.676 0 0 0 
-24.592 4.129 -11.762 0 0 0 
-23.831 4.133 -11.924 0 0 0 
-23.071 4.137 -12.139 0 0 0 
-22.316 4.139 -12.33 0 0 0 
-21.573 4.137 -12.557 0 0 0 
-20.829 4.136 -12.982 0 0 0 
-20.083 4.137 -13.738 0 0 0 
-19.328 4.151 -17.601 0 0 0 
-18.569 4.158 -22.045 0 0 0 
-17.831 4.139 -26.347 0 0 0 
-17.079 4.125 -29.008 0 0 0 
-16.324 4.124 -30.399 0 0 0 
-15.558 4.129 -30.7 0 0 0 
-14.787 4.133 -30.834 0 0 0 
-14.02 4.139 -31.136 0 0 0 
-13.251 4.145 -31.352 0 0 0 
-12.479 4.151 -31.46 0 0 0 
-11.702 4.154 -31.57 0 0 0 
-10.926 4.158 -31.737 0 0 0 
-10.149 4.162 -31.893 0 0 0 
-9.375 4.168 -32.248 0 0 0 
-8.604 4.178 -32.789 0 0 0 
-7.824 4.183 -32.898 0 0 0 
-7.052 4.197 -33.663 0 0 0 
-6.267 4.199 -33.633 0 0 0 
-5.47 4.183 -32.455 0 0 0 
-4.677 4.166 -31.372 0 0 0 
-3.891 4.153 -30.611 0 0 0 
-3.112 4.156 -30.751 0 0 0 
-2.337 4.18 -32.013 0 0 0 
-1.557 4.188 -32.368 0 0 0 
-0.777 4.181 -31.955 0 0 0 
0.002 4.162 -30.78 0 0 0 
0.779 4.157 -30.327 0 0 0 
1.557 4.161 -30.418 0 0 0 
2.333 4.16 -30.173 0 0 0 
3.11 4.157 -29.844 0 0 0 
3.885 4.158 -29.699 0 0 0 
4.66 4.163 -29.868 0 0 0 
5.436 4.166 -29.894 0 0 0 
6.21 4.167 -29.657 0 0 0 
6.986 4.17 -29.657 0 0 0 
7.761 4.174 -29.629 0 0 0 
8.537 4.178 -29.836 0 0 0 
9.314 4.182 -30.067 0 0 0 
10.091 4.186 -30.211 0 0 0 
10.872 4.187 -30.651 0 0 0 
11.65 4.189 -30.772 0 0 0 
12.431 4.187 -31.086 0 0 0 
13.212 4.185 -31.407 0 0 0 
13.998 4.179 -31.784 0 0 0 
14.787 4.172 -32.307 0 0 0 
15.577 4.165 -32.91 0 0 0 
16.37 4.155 -33.744 0 0 0 
17.162 4.146 -34.528 0 0 0 
17.957 4.137 -35.53 0 0 0 
18.746 4.133 -36.101 0 0 0 
19.53 4.141 -36.221 0 0 0 
20.317 4.147 -36.647 0 0 0 
21.109 4.153 -37.492 0 0 0 
21.893 4.163 -37.721 0 0 0 
22.678 4.175 -38.026 0 0 0 
23.476 4.187 -39.726 0 0 0 
24.319 4.286 -44.141 0 0 0 
25.138 4.337 -46.314 0 0 0 
25.932 4.352 -46.735 0 0 0 
26.724 4.363 -46.998 0 0 0 
27.532 4.385 -48.089 0 0 0 
28.338 4.402 -48.923 0 0 0 
29.148 4.417 -49.845 0 0 0 
29.964 4.372 -50.938 0 0 0 
30.777 4.324 -51.873 0 0 0 
31.59 4.281 -52.784 0 0 0 
32.4 4.248 -53.544 0 0 0 
33.211 4.219 -54.32 0 0 0 
34.021 4.193 -55.093 0 0 0 
34.839 4.162 -56.269 0 0 0 
35.653 4.14 -57.263 0 0 0 
36.484 4.107 -59.108 0 0 0 
37.3 4.099 -60.788 0 0 0 
38.11 4.105 -62.356 0 0 0 
38.934 4.107 -64.498 0 0 0 
39.78 4.1 -67.432 0 0 0 
40.609 4.095 -68.547 0 0 0 
41.464 4.088 -71.126 0 0 0 
42.317 4.098 -74.151 0 0 0 
43.157 4.11 -76.675 0 0 0 
43.971 4.115 -77.383 0 0 0 
-96.628 4.279 -93.913 0 0 0 
-95.456 4.373 -87.982 0 0 0 
-94.212 4.456 -82.607 0 0 0 
-93.152 4.511 -79.023 0 0 0 
-92.227 4.53 -75.915 0 0 0 
-91.312 4.548 -72.931 0 0 0 
-90.431 4.561 -70.775 0 0 0 
-89.478 4.585 -68.281 0 0 0 
-88.505 4.61 -65.928 0 0 0 
-87.592 4.626 -64.435 0 0 0 
-86.651 4.645 -62.577 0 0 0 
-85.764 4.657 -61.401 0 0 0 
-84.863 4.672 -59.985 0 0 0 
-84.023 4.679 -58.925 0 0 0 
-83.192 4.687 -57.997 0 0 0 
-82.347 4.7 -56.593 0 0 0 
-81.495 4.717 -54.805 0 0 0 
-80.635 4.741 -52.696 0 0 0 
-79.764 4.772 -50.198 0 0 0 
-78.892 4.785 -48.738 0 0 0 
-78.019 4.795 -47.347 0 0 0 
-77.213 4.802 -47.05 0 0 0 
-76.354 4.808 -45.872 0 0 0 
-75.517 4.813 -45.053 0 0 0 
-74.716 4.817 -44.731 0 0 0 
-73.909 4.822 -44.282 0 0 0 
-73.037 4.83 -42.694 0 0 0 
-72.184 4.84 -41.355 0 0 0 
-71.349 4.852 -40.29 0 0 0 
-70.444 4.844 -38.096 0 0 0 
-69.567 4.833 -36.386 0 0 0 
-68.766 4.832 -35.936 0 0 0 
-67.959 4.829 -35.376 0 0 0 
-67.13 4.82 -34.455 0 0 0 
-66.245 4.795 -32.566 0 0 0 
-65.389 4.773 -31.15 0 0 0 
-64.631 4.776 -31.421 0 0 0 
-63.905 4.791 -32.25 0 0 0 
-63.152 4.8 -32.641 0 0 0 
-62.383 4.804 -32.739 0 0 0 
-61.617 4.81 -32.909 0 0 0 
-60.853 4.816 -33.103 0 0 0 
-60.085 4.821 -33.221 0 0 0 
-59.318 4.826 -33.367 0 0 0 
-58.523 4.815 -33.132 0 0 0 
-57.754 4.813 -33.359 0 0 0 
-56.966 4.804 -33.267 0 0 0 
-56.191 4.799 -33.391 0 0 0 
-55.401 4.79 -33.238 0 0 0 
-54.618 4.784 -33.218 0 0 0 
-53.837 4.778 -33.227 0 0 0 
-53.061 4.777 -33.365 0 0 0 
-52.3 4.777 -33.811 0 0 0 
-51.535 4.775 -34.187 0 0 0 
-50.787 4.772 -34.96 0 0 0 
-50.024 4.766 -35.394 0 0 0 
-49.225 4.761 -35.063 0 0 0 
-48.423 4.755 -34.687 0 0 0 
-47.647 4.747 -34.893 0 0 0 
-46.882 4.737 -35.356 0 0 0 
-46.108 4.727 -35.648 0 0 0 
-45.324 4.718 -35.696 0 0 0 
-44.524 4.714 -35.33 0 0 0 
-43.709 4.715 -34.539 0 0 0 
-42.896 4.725 -33.868 0 0 0 
-42.094 4.73 -33.482 0 0 0 
-41.289 4.736 -33.023 0 0 0 
-40.493 4.739 -32.775 0 0 0 
-39.692 4.744 -32.369 0 0 0 
-38.881 4.75 -31.7 0 0 0 
-38.07 4.755 -30.979 0 0 0 
-37.267 4.76 -30.427 0 0 0 
-36.464 4.762 -29.741 0 0 0 
-35.646 4.752 -27.446 0 0 0 
-34.753 4.733 -19.446 0 0 0 
-33.905 4.787 -16.295 0 0 0 
-33.123 4.794 -16.139 0 0 0 
-32.355 4.797 -16.349 0 0 0 
-31.559 4.817 -15.308 0 0 0 
-30.771 4.833 -14.501 0 0 0 
-29.984 4.848 -13.729 0 0 0 
-29.202 4.859 -13.098 0 0 0 
-28.424 4.868 -12.666 0 0 0 
-27.647 4.876 -12.256 0 0 0 
-26.878 4.883 -12.089 0 0 0 
-26.113 4.888 -12.103 0 0 0 
-25.348 4.893 -12.112 0 0 0 
-24.586 4.897 -12.356 0 0 0 
-23.822 4.902 -12.416 0 0 0 
-23.06 4.906 -12.662 0 0 0 
-22.306 4.908 -13.067 0 0 0 
-21.564 4.907 -13.454 0 0 0 
-20.819 4.907 -13.76 0 0 0 
-20.072 4.91 -14.313 0 0 0 
-19.318 4.924 -17.958 0 0 0 
-18.567 4.929 -22.494 0 0 0 
-17.834 4.911 -26.862 0 0 0 
-17.079 4.902 -28.845 0 0 0 
-16.334 4.902 -30.664 0 0 0 
-15.568 4.909 -30.965 0 0 0 
-14.801 4.916 -31.225 0 0 0 
-14.035 4.924 -31.565 0 0 0 
-13.263 4.93 -31.651 0 0 0 
-12.488 4.936 -31.632 0 0 0 
-11.708 4.937 -31.737 0 0 0 
-10.927 4.937 -31.846 0 0 0 
-10.149 4.94 -32.098 0 0 0 
-9.369 4.941 -32.251 0 0 0 
-8.597 4.949 -32.989 0 0 0 
-7.819 4.955 -33.448 0 0 0 
-7.046 4.969 -34.364 0 0 0 
-6.266 4.978 -34.604 0 0 0 
-5.477 4.976 -34.006 0 0 0 
-4.684 4.962 -32.636 0 0 0 
-3.897 4.949 -31.54 0 0 0 
-3.118 4.953 -31.612 0 0 0 
-2.341 4.962 -31.901 0 0 0 
-1.563 4.965 -32.029 0 0 0 
-0.785 4.955 -31.447 0 0 0 
-0.008 4.942 -30.63 0 0 0 
0.768 4.943 -30.651 0 0 0 
1.545 4.95 -31.146 0 0 0 
2.322 4.949 -31.04 0 0 0 
3.096 4.944 -30.608 0 0 0 
3.87 4.945 -30.206 0 0 0 
4.647 4.951 -30.262 0 0 0 
5.423 4.956 -30.173 0 0 0 
6.197 4.959 -29.765 0 0 0 
6.974 4.964 -29.529 0 0 0 
7.75 4.97 -29.306 0 0 0 
8.525 4.977 -29.49 0 0 0 
9.3 4.979 -29.85 0 0 0 
10.078 4.977 -30.191 0 0 0 
10.859 4.973 -30.662 0 0 0 
11.635 4.971 -30.741 0 0 0 
12.415 4.966 -31.065 0 0 0 
13.196 4.959 -31.42 0 0 0 
13.981 4.953 -31.736 0 0 0 
14.769 4.948 -32.14 0 0 0 
15.56 4.94 -32.729 0 0 0 
16.354 4.931 -33.505 0 0 0 
17.149 4.922 -34.466 0 0 0 
17.944 4.914 -35.37 0 0 0 
18.735 4.911 -36.014 0 0 0 
19.516 4.919 -36.053 0 0 0 
20.29 4.93 -35.523 0 0 0 
21.066 4.939 -35.083 0 0 0 
21.833 4.95 -33.785 0 0 0 
22.627 4.952 -34.988 0 0 0 
23.437 4.958 -37.93 0 0 0 
24.303 5.054 -44.179 0 0 0 
25.114 5.092 -45.604 0 0 0 
25.91 5.11 -46.086 0 0 0 
26.706 5.125 -46.508 0 0 0 
27.516 5.149 -47.58 0 0 0 
28.322 5.165 -48.337 0 0 0 
29.136 5.183 -49.438 0 0 0 
29.949 5.171 -50.295 0 0 0 
30.762 5.127 -51.212 0 0 0 
31.579 5.08 -52.361 0 0 0 
32.385 5.053 -52.994 0 0 0 
33.199 5.018 -54 0 0 0 
34.007 4.995 -54.739 0 0 0 
34.821 4.966 -55.83 0 0 0 
35.638 4.942 -56.949 0 0 0 
36.469 4.911 -58.829 0 0 0 
37.289 4.901 -60.449 0 0 0 
38.1 4.904 -62.304 0 0 0 
38.925 4.899 -64.794 0 0 0 
39.764 4.886 -67.522 0 0 0 
40.594 4.876 -68.818 0 0 0 
41.452 4.874 -71.639 0 0 0 
42.302 4.887 -74.28 0 0 0 
43.143 4.899 -76.685 0 0 0 
43.959 4.902 -77.376 0 0 0 
-96.614 5.094 -93.793 0 0 0 
-95.483 5.171 -88.376 0 0 0 
-94.269 5.244 -83.314 0 0 0 
-93.175 5.304 -79.633 0 0 0 
-92.253 5.321 -76.615 0 0 0 
-91.332 5.339 -73.51 0 0 0 
-90.447 5.352 -71.273 0 0 0 
-89.493 5.375 -68.522 0 0 0 
-88.495 5.403 -65.822 0 0 0 
-87.587 5.418 -64.38 0 0 0 
-86.635 5.438 -62.357 0 0 0 
-85.731 5.452 -60.928 0 0 0 
-84.836 5.466 -59.249 0 0 0 
-84.012 5.472 -58.532 0 0 0 
-83.169 5.482 -57.156 0 0 0 
-82.33 5.494 -55.711 0 0 0 
-81.5 5.507 -54.285 0 0 0 
-80.638 5.531 -51.94 0 0 0 
-79.757 5.558 -49.552 0 0 0 
-78.751 5.574 -46.18 0 0 0 
-77.908 5.583 -45.326 0 0 0 
-77.159 5.589 -45.974 0 0 0 
-76.31 5.597 -44.968 0 0 0 
-75.495 5.604 -44.502 0 0 0 
-74.728 5.609 -44.733 0 0 0 
-73.944 5.615 -44.667 0 0 0 
-73.075 5.624 -43.067 0 0 0 
-72.243 5.635 -42.065 0 0 0 
-71.393 5.649 -40.672 0 0 0 
-70.512 5.65 -38.856 0 0 0 
-69.597 5.633 -36.589 0 0 0 
-68.774 5.627 -35.806 0 0 0 
-67.957 5.62 -35.092 0 0 0 
-67.1 5.602 -33.734 0 0 0 
-66.192 5.568 -31.512 0 0 0 
-65.338 5.544 -30.175 0 0 0 
-64.623 5.557 -31.138 0 0 0 
-63.927 5.582 -32.441 0 0 0 
-63.163 5.588 -32.63 0 0 0 
-62.387 5.591 -32.623 0 0 0 
-61.624 5.598 -32.833 0 0 0 
-60.874 5.611 -33.261 0 0 0 
-60.13 5.626 -33.78 0 0 0 
-59.344 5.625 -33.606 0 0 0 
-58.528 5.603 -33.028 0 0 0 
-57.744 5.594 -32.989 0 0 0 
-56.952 5.581 -32.778 0 0 0 
-56.175 5.574 -32.863 0 0 0 
-55.401 5.567 -32.986 0 0 0 
-54.625 5.559 -33.092 0 0 0 
-53.852 5.555 -33.264 0 0 0 
-53.085 5.557 -33.593 0 0 0 
-52.318 5.558 -33.928 0 0 0 
-51.547 5.558 -34.174 0 0 0 
-50.795 5.558 -34.823 0 0 0 
-50.035 5.555 -35.323 0 0 0 
-49.255 5.552 -35.399 0 0 0 
-48.464 5.544 -35.286 0 0 0 
-47.708 5.532 -35.969 0 0 0 
-46.928 5.52 -36.13 0 0 0 
-46.155 5.506 -36.459 0 0 0 
-45.371 5.494 -36.545 0 0 0 
-44.573 5.485 -36.274 0 0 0 
-43.746 5.486 -35.226 0 0 0 
-42.931 5.495 -34.559 0 0 0 
-42.132 5.5 -34.294 0 0 0 
-41.328 5.506 -33.881 0 0 0 
-40.52 5.512 -33.335 0 0 0 
-39.712 5.517 -32.768 0 0 0 
-38.909 5.52 -32.345 0 0 0 
-38.094 5.525 -31.523 0 0 0 
-37.286 5.53 -30.799 0 0 0 
-36.471 5.534 -29.762 0 0 0 
-35.65 5.527 -27.348 0 0 0 
-34.753 5.514 -19.613 0 0 0 
-33.926 5.551 -17.307 0 0 0 
-33.141 5.559 -17.049 0 0 0 
-32.366 5.565 -16.99 0 0 0 
-31.573 5.582 -16.083 0 0 0 
-30.776 5.601 -14.955 0 0 0 
-29.993 5.612 -14.392 0 0 0 
-29.206 5.626 -13.597 0 0 0 
-28.426 5.635 -13.13 0 0 0 
-27.652 5.642 -12.886 0 0 0 
-26.882 5.649 -12.767 0 0 0 
-26.112 5.656 -12.652 0 0 0 
-25.346 5.661 -12.763 0 0 0 
-24.58 5.666 -12.852 0 0 0 
-23.813 5.671 -12.929 0 0 0 
-23.052 5.674 -13.328 0 0 0 
-22.297 5.676 -13.688 0 0 0 
-21.553 5.676 -14.004 0 0 0 
-20.808 5.678 -14.304 0 0 0 
-20.061 5.682 -14.901 0 0 0 
-19.308 5.698 -18.48 0 0 0 
-18.561 5.703 -22.488 0 0 0 
-17.83 5.687 -26.637 0 0 0 
-17.078 5.679 -28.634 0 0 0 
-16.339 5.68 -30.743 0 0 0 
-15.575 5.689 -31.091 0 0 0 
-14.81 5.698 -31.433 0 0 0 
-14.042 5.706 -31.659 0 0 0 
-13.269 5.714 -31.735 0 0 0 
-12.494 5.721 -31.724 0 0 0 
-11.715 5.72 -31.985 0 0 0 
-10.931 5.718 -32.068 0 0 0 
-10.147 5.716 -32.153 0 0 0 
-9.362 5.715 -32.252 0 0 0 
-8.58 5.715 -32.534 0 0 0 
-7.799 5.716 -32.955 0 0 0 
-7.023 5.726 -33.751 0 0 0 
-6.252 5.743 -34.561 0 0 0 
-5.47 5.749 -34.314 0 0 0 
-4.685 5.749 -33.561 0 0 0 
-3.902 5.744 -32.662 0 0 0 
-3.123 5.744 -32.213 0 0 0 
-2.346 5.749 -32.087 0 0 0 
-1.569 5.747 -31.901 0 0 0 
-0.793 5.736 -31.354 0 0 0 
-0.018 5.723 -30.589 0 0 0 
0.756 5.722 -30.586 0 0 0 
1.532 5.726 -30.941 0 0 0 
2.307 5.726 -30.986 0 0 0 
3.079 5.719 -30.482 0 0 0 
3.855 5.725 -30.22 0 0 0 
4.634 5.735 -30.42 0 0 0 
5.41 5.744 -30.288 0 0 0 
6.184 5.753 -30.036 0 0 0 
6.963 5.755 -29.104 0 0 0 
7.743 5.761 -28.335 0 0 0 
8.516 5.774 -29.183 0 0 0 
9.289 5.774 -30.08 0 0 0 
10.07 5.764 -30.559 0 0 0 
10.848 5.757 -30.829 0 0 0 
11.623 5.752 -30.839 0 0 0 
12.4 5.744 -31.042 0 0 0 
13.181 5.732 -31.457 0 0 0 
13.966 5.726 -31.763 0 0 0 
14.754 5.72 -32.154 0 0 0 
15.547 5.712 -32.794 0 0 0 
16.339 5.706 -33.434 0 0 0 
17.136 5.697 -34.408 0 0 0 
17.934 5.69 -35.435 0 0 0 
18.718 5.693 -35.536 0 0 0 
19.491 5.702 -35.067 0 0 0 
20.249 5.716 -33.452 0 0 0 
21.006 5.727 -31.397 0 0 0 
21.785 5.726 -31.064 0 0 0 
22.586 5.723 -32.856 0 0 0 
23.414 5.728 -37.702 0 0 0 
24.272 5.807 -43.335 0 0 0 
25.087 5.846 -44.799 0 0 0 
25.883 5.866 -45.226 0 0 0 
26.683 5.885 -45.73 0 0 0 
27.498 5.912 -46.972 0 0 0 
28.307 5.931 -47.853 0 0 0 
29.121 5.949 -48.872 0 0 0 
29.934 5.951 -49.722 0 0 0 
30.745 5.927 -50.523 0 0 0 
31.565 5.879 -51.838 0 0 0 
32.373 5.851 -52.569 0 0 0 
33.181 5.825 -53.341 0 0 0 
33.993 5.796 -54.345 0 0 0 
34.806 5.767 -55.495 0 0 0 
35.626 5.74 -56.824 0 0 0 
36.449 5.719 -58.271 0 0 0 
37.276 5.706 -59.934 0 0 0 
38.092 5.702 -62.56 0 0 0 
38.915 5.691 -64.996 0 0 0 
39.745 5.673 -67.404 0 0 0 
40.577 5.656 -69.072 0 0 0 
41.437 5.66 -71.932 0 0 0 
42.29 5.677 -74.63 0 0 0 
43.131 5.689 -76.886 0 0 0 
43.949 5.69 -77.585 0 0 0 
-96.609 5.906 -93.834 0 0 0 
-95.485 5.974 -88.462 0 0 0 
-94.339 6.032 -84.211 0 0 0 
-93.209 6.095 -80.248 0 0 0 
-92.282 6.112 -77.367 0 0 0 
-91.352 6.129 -74.094 0 0 0 
-90.45 6.144 -71.436 0 0 0 
-89.509 6.164 -68.796 0 0 0 
-88.487 6.195 -65.737 0 0 0 
-87.564 6.212 -64.069 0 0 0 
-86.607 6.233 -61.959 0 0 0 
-85.658 6.254 -59.79 0 0 0 
-84.816 6.26 -58.675 0 0 0 
-83.988 6.266 -57.733 0 0 0 
-83.142 6.276 -56.079 0 0 0 
-82.321 6.286 -54.924 0 0 0 
-81.492 6.3 -53.189 0 0 0 
-80.652 6.319 -51.402 0 0 0 
-79.683 6.344 -48.033 0 0 0 
-78.699 6.36 -45.12 0 0 0 
-77.84 6.371 -44.015 0 0 0 
-77.017 6.38 -43.416 0 0 0 
-76.183 6.389 -42.574 0 0 0 
-75.398 6.397 -42.549 0 0 0 
-74.7 6.402 -44.013 0 0 0 
-73.942 6.408 -44.4 0 0 0 
-73.097 6.419 -43.149 0 0 0 
-72.276 6.43 -42.328 0 0 0 
-71.417 6.447 -40.697 0 0 0 
-70.546 6.451 -39.049 0 0 0 
-69.625 6.432 -36.759 0 0 0 
-68.78 6.42 -35.648 0 0 0 
-67.949 6.409 -34.747 0 0 0 
-67.086 6.388 -33.315 0 0 0 
-66.16 6.346 -30.879 0 0 0 
-65.347 6.33 -30.214 0 0 0 
-64.67 6.354 -31.759 0 0 0 
-63.945 6.371 -32.56 0 0 0 
-63.165 6.374 -32.489 0 0 0 
-62.384 6.375 -32.402 0 0 0 
-61.628 6.386 -32.715 0 0 0 
-60.897 6.406 -33.447 0 0 0 
-60.164 6.427 -34.129 0 0 0 
-59.365 6.423 -33.765 0 0 0 
-58.528 6.39 -32.848 0 0 0 
-57.711 6.366 -32.226 0 0 0 
-56.926 6.354 -32.114 0 0 0 
-56.16 6.348 -32.363 0 0 0 
-55.407 6.345 -32.856 0 0 0 
-54.63 6.334 -32.941 0 0 0 
-53.859 6.33 -33.148 0 0 0 
-53.089 6.334 -33.417 0 0 0 
-52.326 6.339 -33.82 0 0 0 
-51.551 6.341 -33.99 0 0 0 
-50.781 6.343 -34.257 0 0 0 
-50.022 6.344 -34.766 0 0 0 
-49.263 6.344 -35.265 0 0 0 
-48.506 6.334 -35.872 0 0 0 
-47.748 6.319 -36.517 0 0 0 
-46.946 6.307 -36.202 0 0 0 
-46.144 6.296 -35.889 0 0 0 
-45.354 6.283 -35.835 0 0 0 
-44.561 6.272 -35.685 0 0 0 
-43.75 6.266 -35.061 0 0 0 
-42.944 6.273 -34.642 0 0 0 
-42.152 6.276 -34.589 0 0 0 
-41.347 6.282 -34.197 0 0 0 
-40.536 6.288 -33.615 0 0 0 
-39.724 6.293 -32.966 0 0 0 
-38.917 6.295 -32.435 0 0 0 
-38.102 6.299 -31.6 0 0 0 
-37.293 6.302 -30.815 0 0 0 
-36.472 6.305 -29.364 0 0 0 
-35.648 6.302 -26.891 0 0 0 
-34.748 6.298 -19.524 0 0 0 
-33.94 6.32 -18.099 0 0 0 
-33.154 6.329 -17.741 0 0 0 
-32.373 6.337 -17.49 0 0 0 
-31.577 6.353 -16.497 0 0 0 
-30.785 6.368 -15.576 0 0 0 
-29.993 6.383 -14.681 0 0 0 
-29.213 6.392 -14.228 0 0 0 
-28.427 6.405 -13.491 0 0 0 
-27.651 6.412 -13.235 0 0 0 
-26.88 6.418 -13.183 0 0 0 
-26.109 6.425 -13.09 0 0 0 
-25.34 6.43 -13.151 0 0 0 
-24.573 6.434 -13.261 0 0 0 
-23.807 6.438 -13.523 0 0 0 
-23.043 6.441 -13.827 0 0 0 
-22.287 6.443 -14.222 0 0 0 
-21.543 6.445 -14.55 0 0 0 
-20.798 6.448 -14.978 0 0 0 
-20.052 6.454 -15.763 0 0 0 
-19.299 6.471 -19.073 0 0 0 
-18.554 6.478 -22.388 0 0 0 
-17.828 6.463 -26.61 0 0 0 
-17.082 6.453 -28.968 0 0 0 
-16.337 6.457 -30.575 0 0 0 
-15.576 6.468 -31.006 0 0 0 
-14.809 6.478 -31.241 0 0 0 
-14.042 6.487 -31.53 0 0 0 
-13.27 6.496 -31.6 0 0 0 
-12.496 6.504 -31.608 0 0 0 
-11.712 6.5 -31.784 0 0 0 
-10.928 6.496 -31.976 0 0 0 
-10.142 6.491 -32.075 0 0 0 
-9.353 6.486 -32.052 0 0 0 
-8.564 6.482 -32.072 0 0 0 
-7.776 6.477 -32.084 0 0 0 
-6.994 6.478 -32.262 0 0 0 
-6.226 6.493 -32.929 0 0 0 
-5.46 6.517 -34.207 0 0 0 
-4.683 6.527 -34.063 0 0 0 
-3.903 6.529 -33.253 0 0 0 
-3.125 6.528 -32.447 0 0 0 
-2.35 6.534 -32.176 0 0 0 
-1.575 6.531 -31.98 0 0 0 
-0.801 6.519 -31.355 0 0 0 
-0.028 6.508 -30.746 0 0 0 
0.744 6.502 -30.533 0 0 0 
1.515 6.492 -29.949 0 0 0 
2.291 6.498 -30.581 0 0 0 
3.06 6.49 -30.06 0 0 0 
3.838 6.504 -30.089 0 0 0 
4.619 6.518 -30.366 0 0 0 
5.393 6.531 -30.046 0 0 0 
6.172 6.538 -29.451 0 0 0 
6.96 6.534 -27.559 0 0 0 
7.747 6.54 -26.5 0 0 0 
8.512 6.566 -28.314 0 0 0 
9.275 6.57 -29.972 0 0 0 
10.061 6.552 -30.737 0 0 0 
10.836 6.541 -30.901 0 0 0 
11.607 6.535 -30.749 0 0 0 
12.38 6.528 -30.699 0 0 0 
13.165 6.507 -31.459 0 0 0 
13.954 6.494 -32.027 0 0 0 
14.741 6.491 -32.272 0 0 0 
15.531 6.486 -32.721 0 0 0 
16.324 6.481 -33.312 0 0 0 
17.129 6.468 -34.697 0 0 0 
17.924 6.465 -35.484 0 0 0 
18.702 6.473 -35.141 0 0 0 
19.457 6.487 -33.557 0 0 0 
20.222 6.492 -32.525 0 0 0 
20.998 6.493 -32.126 0 0 0 
21.787 6.491 -32.855 0 0 0 
22.582 6.49 -34.285 0 0 0 
23.405 6.5 -38.901 0 0 0 
24.248 6.568 -42.945 0 0 0 
25.065 6.608 -44.377 0 0 0 
25.863 6.629 -44.74 0 0 0 
26.66 6.647 -45.059 0 0 0 
27.475 6.675 -46.235 0 0 0 
28.286 6.695 -47.095 0 0 0 
29.105 6.716 -48.291 0 0 0 
29.918 6.72 -49.136 0 0 0 
30.731 6.717 -49.924 0 0 0 
31.55 6.678 -51.169 0 0 0 
32.361 6.648 -52.13 0 0 0 
33.166 6.627 -52.765 0 0 0 
33.976 6.601 -53.71 0 0 0 
34.79 6.57 -55.047 0 0 0 
35.609 6.544 -56.3 0 0 0 
36.425 6.529 -57.391 0 0 0 
37.259 6.514 -59.422 0 0 0 
38.083 6.499 -62.747 0 0 0 
38.905 6.479 -65.468 0 0 0 
39.728 6.459 -67.451 0 0 0 
40.56 6.433 -69.419 0 0 0 
41.414 6.442 -71.721 0 0 0 
42.275 6.467 -74.696 0 0 0 
43.12 6.481 -77.103 0 0 0 
43.944 6.481 -78.196 0 0 0 
-96.648 6.709 -94.732 0 0 0 
-95.554 6.768 -89.398 0 0 0 
-94.376 6.826 -84.7 0 0 0 
-93.249 6.886 -80.748 0 0 0 
-92.315 6.903 -78.242 0 0 0 
-91.364 6.921 -74.452 0 0 0 
-90.467 6.934 -71.975 0 0 0 
-89.523 6.954 -69.043 0 0 0 
-88.487 6.987 -65.75 0 0 0 
-87.565 7.003 -64.092 0 0 0 
-86.573 7.029 -61.477 0 0 0 
-85.642 7.046 -59.345 0 0 0 
-84.802 7.052 -58.187 0 0 0 
-83.956 7.06 -56.619 0 0 0 
-83.137 7.067 -55.551 0 0 0 
-82.317 7.076 -54.166 0 0 0 
-81.495 7.089 -52.234 0 0 0 
-80.659 7.108 -50.414 0 0 0 
-79.658 7.128 -47.33 0 0 0 
-78.725 7.144 -45.292 0 0 0 
-77.817 7.158 -43.433 0 0 0 
-76.915 7.172 -41.473 0 0 0 
-75.968 7.174 -38.659 0 0 0 
-75.176 7.181 -38.41 0 0 0 
-74.503 7.204 -39.985 0 0 0 
-73.878 7.206 -42.905 0 0 0 
-73.103 7.214 -42.95 0 0 0 
-72.287 7.227 -42.161 0 0 0 
-71.434 7.246 -40.565 0 0 0 
-70.561 7.248 -38.922 0 0 0 
-69.653 7.232 -36.91 0 0 0 
-68.78 7.213 -35.413 0 0 0 
-67.928 7.195 -34.199 0 0 0 
-67.083 7.176 -33.093 0 0 0 
-66.177 7.137 -31.027 0 0 0 
-65.372 7.122 -30.507 0 0 0 
-64.701 7.147 -32.083 0 0 0 
-63.971 7.163 -32.787 0 0 0 
-63.192 7.167 -32.741 0 0 0 
-62.391 7.163 -32.343 0 0 0 
-61.62 7.17 -32.431 0 0 0 
-60.92 7.202 -33.624 0 0 0 
-60.226 7.239 -34.901 0 0 0 
-59.428 7.236 -34.545 0 0 0 
-58.51 7.169 -32.377 0 0 0 
-57.642 7.126 -30.886 0 0 0 
-56.889 7.123 -31.277 0 0 0 
-56.144 7.122 -31.851 0 0 0 
-55.407 7.121 -32.621 0 0 0 
-54.64 7.11 -32.875 0 0 0 
-53.865 7.104 -32.993 0 0 0 
-53.09 7.11 -33.161 0 0 0 
-52.332 7.119 -33.683 0 0 0 
-51.558 7.124 -33.879 0 0 0 
-50.778 7.128 -33.939 0 0 0 
-49.993 7.131 -33.907 0 0 0 
-49.22 7.135 -34.105 0 0 0 
-48.438 7.128 -34.155 0 0 0 
-47.657 7.115 -34.25 0 0 0 
-46.85 7.104 -33.761 0 0 0 
-46.101 7.088 -34.591 0 0 0 
-45.331 7.072 -34.959 0 0 0 
-44.541 7.059 -34.895 0 0 0 
-43.742 7.049 -34.563 0 0 0 
-42.946 7.053 -34.436 0 0 0 
-42.156 7.056 -34.482 0 0 0 
-41.351 7.061 -34.103 0 0 0 
-40.532 7.067 -33.301 0 0 0 
-39.722 7.07 -32.722 0 0 0 
-38.914 7.072 -32.179 0 0 0 
-38.092 7.073 -31.122 0 0 0 
-37.27 7.076 -29.858 0 0 0 
-36.468 7.077 -28.789 0 0 0 
-35.645 7.077 -26.496 0 0 0 
-34.742 7.083 -19.405 0 0 0 
-33.948 7.096 -18.582 0 0 0 
-33.164 7.103 -18.323 0 0 0 
-32.376 7.113 -17.797 0 0 0 
-31.582 7.126 -16.903 0 0 0 
-30.787 7.14 -15.934 0 0 0 
-29.999 7.152 -15.179 0 0 0 
-29.214 7.163 -14.587 0 0 0 
-28.432 7.173 -14.058 0 0 0 
-27.654 7.181 -13.75 0 0 0 
-26.882 7.186 -13.732 0 0 0 
-26.109 7.192 -13.666 0 0 0 
-25.341 7.196 -13.861 0 0 0 
-24.572 7.2 -13.991 0 0 0 
-23.803 7.204 -14.149 0 0 0 
-23.037 7.205 -14.505 0 0 0 
-22.28 7.207 -14.911 0 0 0 
-21.536 7.211 -15.246 0 0 0 
-20.792 7.216 -15.844 0 0 0 
-20.046 7.225 -17.299 0 0 0 
-19.29 7.244 -19.392 0 0 0 
-18.55 7.251 -22.61 0 0 0 
-17.824 7.24 -26.325 0 0 0 
-17.083 7.228 -28.997 0 0 0 
-16.328 7.232 -30.197 0 0 0 
-15.573 7.246 -30.799 0 0 0 
-14.806 7.257 -31.038 0 0 0 
-14.04 7.268 -31.304 0 0 0 
-13.269 7.278 -31.395 0 0 0 
-12.495 7.287 -31.402 0 0 0 
-11.708 7.28 -31.493 0 0 0 
-10.92 7.273 -31.621 0 0 0 
-10.131 7.266 -31.701 0 0 0 
-9.339 7.258 -31.577 0 0 0 
-8.546 7.249 -31.409 0 0 0 
-7.755 7.241 -31.25 0 0 0 
-6.973 7.24 -31.371 0 0 0 
-6.203 7.251 -31.442 0 0 0 
-5.44 7.271 -32.471 0 0 0 
-4.677 7.299 -34.066 0 0 0 
-3.901 7.307 -33.429 0 0 0 
-3.126 7.31 -32.538 0 0 0 
-2.355 7.317 -32.203 0 0 0 
-1.582 7.315 -31.977 0 0 0 
-0.809 7.3 -31.245 0 0 0 
-0.038 7.291 -30.815 0 0 0 
0.733 7.283 -30.555 0 0 0 
1.502 7.273 -29.987 0 0 0 
2.273 7.271 -30.169 0 0 0 
3.043 7.265 -29.922 0 0 0 
3.823 7.285 -30.188 0 0 0 
4.612 7.303 -31.079 0 0 0 
5.395 7.316 -31.241 0 0 0 
6.168 7.331 -30.792 0 0 0 
6.951 7.329 -27.929 0 0 0 
7.748 7.328 -26.196 0 0 0 
8.508 7.359 -27.998 0 0 0 
9.268 7.362 -30.28 0 0 0 
10.065 7.327 -31.622 0 0 0 
10.841 7.311 -31.826 0 0 0 
11.594 7.316 -30.813 0 0 0 
12.357 7.314 -30.26 0 0 0 
13.144 7.287 -31.14 0 0 0 
13.937 7.268 -31.967 0 0 0 
14.724 7.266 -32.166 0 0 0 
15.513 7.262 -32.473 0 0 0 
16.308 7.256 -33.17 0 0 0 
17.118 7.242 -34.763 0 0 0 
17.909 7.243 -35.236 0 0 0 
18.68 7.254 -34.416 0 0 0 
19.438 7.262 -33.19 0 0 0 
20.223 7.259 -33.665 0 0 0 
21.012 7.257 -34.548 0 0 0 
21.791 7.258 -34.66 0 0 0 
22.576 7.26 -35.498 0 0 0 
23.394 7.273 -40.004 0 0 0 
24.221 7.33 -42.511 0 0 0 
25.041 7.371 -43.923 0 0 0 
25.839 7.391 -44.159 0 0 0 
26.629 7.407 -44.053 0 0 0 
27.447 7.437 -45.247 0 0 0 
28.266 7.462 -46.436 0 0 0 
29.082 7.482 -47.433 0 0 0 
29.905 7.491 -48.714 0 0 0 
30.713 7.489 -49.283 0 0 0 
31.538 7.471 -50.673 0 0 0 
32.352 7.439 -51.823 0 0 0 
33.157 7.421 -52.462 0 0 0 
33.961 7.403 -53.156 0 0 0 
34.777 7.369 -54.727 0 0 0 
35.598 7.341 -56.133 0 0 0 
36.415 7.327 -57.28 0 0 0 
37.255 7.313 -59.731 0 0 0 
38.074 7.294 -62.954 0 0 0 
38.896 7.261 -66.244 0 0 0 
39.714 7.239 -67.853 0 0 0 
40.544 7.205 -70.045 0 0 0 
41.397 7.228 -71.846 0 0 0 
42.266 7.261 -75.235 0 0 0 
43.108 7.271 -77.215 0 0 0 
43.942 7.274 -79.074 0 0 0 
-96.711 7.512 -96.078 0 0 0 
-95.62 7.564 -90.488 0 0 0 
-94.422 7.621 -85.309 0 0 0 
-93.27 7.68 -81.022 0 0 0 
-92.333 7.696 -78.692 0 0 0 
-91.366 7.715 -74.534 0 0 0 
-90.491 7.724 -72.656 0 0 0 
-89.552 7.743 -69.506 0 0 0 
-88.476 7.78 -65.619 0 0 0 
-87.515 7.801 -63.394 0 0 0 
-86.488 7.832 -60.249 0 0 0 
-85.612 7.839 -58.562 0 0 0 
-84.781 7.844 -57.497 0 0 0 
-83.961 7.849 -56.529 0 0 0 
-83.145 7.855 -55.367 0 0 0 
-82.311 7.866 -53.141 0 0 0 
-81.503 7.877 -51.212 0 0 0 
-80.624 7.894 -49.209 0 0 0 
-79.639 7.912 -46.766 0 0 0 
-78.757 7.927 -45.54 0 0 0 
-77.84 7.944 -43.6 0 0 0 
-76.877 7.963 -40.59 0 0 0 
-75.906 7.955 -37.444 0 0 0 
-75.089 7.959 -36.785 0 0 0 
-74.429 7.986 -38.515 0 0 0 
-73.769 8.011 -40.304 0 0 0 
-73.076 8.014 -42.011 0 0 0 
-72.271 8.028 -41.391 0 0 0 
-71.445 8.046 -40.297 0 0 0 
-70.569 8.044 -38.724 0 0 0 
-69.673 8.03 -36.937 0 0 0 
-68.807 8.011 -35.583 0 0 0 
-67.926 7.985 -33.984 0 0 0 
-67.1 7.968 -33.182 0 0 0 
-66.233 7.938 -31.759 0 0 0 
-65.44 7.926 -31.436 0 0 0 
-64.69 7.927 -31.76 0 0 0 
-63.949 7.939 -32.267 0 0 0 
-63.154 7.938 -31.979 0 0 0 
-62.355 7.935 -31.634 0 0 0 
-61.594 7.946 -31.883 0 0 0 
-60.921 7.99 -33.447 0 0 0 
-60.239 8.032 -34.874 0 0 0 
-59.444 8.032 -34.591 0 0 0 
-58.522 7.96 -32.411 0 0 0 
-57.669 7.918 -31.188 0 0 0 
-56.911 7.911 -31.486 0 0 0 
-56.167 7.907 -32.056 0 0 0 
-55.43 7.903 -32.816 0 0 0 
-54.656 7.888 -32.929 0 0 0 
-53.876 7.879 -32.952 0 0 0 
-53.1 7.888 -33.109 0 0 0 
-52.338 7.899 -33.545 0 0 0 
-51.563 7.906 -33.716 0 0 0 
-50.774 7.912 -33.605 0 0 0 
-49.966 7.917 -33.13 0 0 0 
-49.17 7.924 -32.887 0 0 0 
-48.376 7.918 -32.668 0 0 0 
-47.581 7.907 -32.41 0 0 0 
-46.807 7.894 -32.587 0 0 0 
-46.053 7.879 -33.217 0 0 0 
-45.279 7.864 -33.453 0 0 0 
-44.497 7.85 -33.493 0 0 0 
-43.72 7.835 -33.672 0 0 0 
-42.94 7.835 -34.014 0 0 0 
-42.153 7.836 -34.153 0 0 0 
-41.338 7.842 -33.51 0 0 0 
-40.528 7.846 -32.971 0 0 0 
-39.717 7.847 -32.385 0 0 0 
-38.892 7.847 -31.343 0 0 0 
-38.061 7.844 -29.941 0 0 0 
-37.263 7.847 -29.176 0 0 0 
-36.462 7.85 -28.182 0 0 0 
-35.613 7.855 -24.585 0 0 0 
-34.738 7.867 -19.381 0 0 0 
-33.949 7.876 -18.803 0 0 0 
-33.165 7.883 -18.538 0 0 0 
-32.378 7.891 -18.027 0 0 0 
-31.59 7.9 -17.436 0 0 0 
-30.798 7.911 -16.627 0 0 0 
-30.005 7.922 -15.731 0 0 0 
-29.22 7.932 -15.153 0 0 0 
-28.437 7.942 -14.623 0 0 0 
-27.66 7.949 -14.41 0 0 0 
-26.887 7.954 -14.43 0 0 0 
-26.117 7.957 -14.586 0 0 0 
-25.344 7.961 -14.608 0 0 0 
-24.571 7.965 -14.653 0 0 0 
-23.799 7.969 -14.75 0 0 0 
-23.033 7.969 -15.145 0 0 0 
-22.277 7.968 -15.711 0 0 0 
-21.533 7.974 -16.178 0 0 0 
-20.788 7.982 -16.966 0 0 0 
-20.04 7.995 -18.26 0 0 0 
-19.281 8.017 -19.829 0 0 0 
-18.543 8.026 -22.509 0 0 0 
-17.817 8.018 -25.892 0 0 0 
-17.082 8.005 -28.799 0 0 0 
-16.32 8.01 -29.672 0 0 0 
-15.56 8.022 -30.266 0 0 0 
-14.8 8.036 -30.7 0 0 0 
-14.033 8.048 -30.895 0 0 0 
-13.263 8.059 -31.025 0 0 0 
-12.489 8.07 -30.991 0 0 0 
-11.7 8.06 -31.084 0 0 0 
-10.91 8.051 -31.153 0 0 0 
-10.12 8.041 -31.254 0 0 0 
-9.325 8.03 -31.085 0 0 0 
-8.531 8.019 -30.854 0 0 0 
-7.738 8.009 -30.632 0 0 0 
-6.955 8.006 -30.593 0 0 0 
-6.188 8.018 -30.516 0 0 0 
-5.426 8.035 -31.294 0 0 0 
-4.665 8.061 -32.775 0 0 0 
-3.897 8.076 -32.721 0 0 0 
-3.127 8.086 -32.205 0 0 0 
-2.358 8.094 -31.631 0 0 0 
-1.588 8.091 -31.375 0 0 0 
-0.818 8.08 -30.99 0 0 0 
-0.049 8.069 -30.521 0 0 0 
0.721 8.062 -30.381 0 0 0 
1.488 8.053 -30.074 0 0 0 
2.258 8.048 -30.078 0 0 0 
3.026 8.042 -29.94 0 0 0 
3.809 8.065 -30.336 0 0 0 
4.598 8.085 -31.072 0 0 0 
5.38 8.101 -31.1 0 0 0 
6.152 8.123 -30.513 0 0 0 
6.928 8.14 -29.366 0 0 0 
7.717 8.152 -28.681 0 0 0 
8.484 8.172 -29.461 0 0 0 
9.255 8.157 -30.26 0 0 0 
10.048 8.121 -31.273 0 0 0 
10.829 8.095 -31.812 0 0 0 
11.585 8.093 -31.083 0 0 0 
12.343 8.09 -30.403 0 0 0 
13.128 8.06 -31.193 0 0 0 
13.914 8.048 -31.564 0 0 0 
14.704 8.043 -31.89 0 0 0 
15.493 8.04 -32.148 0 0 0 
16.295 8.029 -33.171 0 0 0 
17.108 8.016 -34.896 0 0 0 
17.89 8.022 -34.753 0 0 0 
18.653 8.034 -33.498 0 0 0 
19.435 8.032 -33.825 0 0 0 
20.23 8.027 -35.171 0 0 0 
21.004 8.028 -35.072 0 0 0 
21.779 8.028 -35.17 0 0 0 
22.568 8.031 -36.535 0 0 0 
23.381 8.052 -40.425 0 0 0 
24.198 8.095 -42.291 0 0 0 
25.009 8.129 -43.103 0 0 0 
25.803 8.149 -43.096 0 0 0 
26.6 8.171 -43.199 0 0 0 
27.412 8.198 -44 0 0 0 
28.239 8.228 -45.443 0 0 0 
29.064 8.252 -46.803 0 0 0 
29.885 8.261 -47.968 0 0 0 
30.699 8.262 -48.825 0 0 0 
31.523 8.263 -50.023 0 0 0 
32.34 8.234 -51.301 0 0 0 
33.147 8.215 -52.119 0 0 0 
33.95 8.199 -52.821 0 0 0 
34.761 8.173 -54.126 0 0 0 
35.586 8.138 -55.886 0 0 0 
36.412 8.12 -57.587 0 0 0 
37.253 8.107 -60.615 0 0 0 
38.063 8.093 -62.832 0 0 0 
38.884 8.043 -66.74 0 0 0 
39.698 8.017 -68.27 0 0 0 
40.529 7.991 -70.472 0 0 0 
41.381 8.015 -72.11 0 0 0 
42.254 8.053 -75.476 0 0 0 
43.094 8.061 -77.213 0 0 0 
43.934 8.064 -79.31 0 0 0 
-96.758 8.314 -97.016 0 0 0 
-95.69 8.357 -91.986 0 0 0 
-94.434 8.415 -85.496 0 0 0 
-93.269 8.469 -80.982 0 0 0 
-92.33 8.482 -78.614 0 0 0 
-91.381 8.497 -75.033 0 0 0 
-90.496 8.506 -72.995 0 0 0 
-89.561 8.523 -69.823 0 0 0 
-88.423 8.574 -64.966 0 0 0 
-87.473 8.596 -62.85 0 0 0 
-86.474 8.626 -60.007 0 0 0 
-85.604 8.63 -58.196 0 0 0 
-84.785 8.633 -57.438 0 0 0 
-83.97 8.637 -56.624 0 0 0 
-83.14 8.644 -55.08 0 0 0 
-82.286 8.657 -52.17 0 0 0 
-81.475 8.669 -50.214 0 0 0 
-80.528 8.686 -47.994 0 0 0 
-79.621 8.703 -46.489 0 0 0 
-78.711 8.721 -44.75 0 0 0 
-77.812 8.739 -42.932 0 0 0 
-76.92 8.757 -40.958 0 0 0 
-75.973 8.753 -38.148 0 0 0 
-75.135 8.754 -37.182 0 0 0 
-74.371 8.766 -37.349 0 0 0 
-73.623 8.781 -37.735 0 0 0 
-72.845 8.791 -37.701 0 0 0 
-72.237 8.83 -40.163 0 0 0 
-71.441 8.841 -39.794 0 0 0 
-70.6 8.84 -38.849 0 0 0 
-69.703 8.823 -37.098 0 0 0 
-68.841 8.806 -35.837 0 0 0 
-67.954 8.779 -34.198 0 0 0 
-67.132 8.765 -33.488 0 0 0 
-66.258 8.734 -32.007 0 0 0 
-65.442 8.716 -31.365 0 0 0 
-64.686 8.717 -31.593 0 0 0 
-63.954 8.733 -32.229 0 0 0 
-63.175 8.738 -32.196 0 0 0 
-62.369 8.732 -31.754 0 0 0 
-61.628 8.75 -32.277 0 0 0 
-60.96 8.796 -33.857 0 0 0 
-60.278 8.839 -35.248 0 0 0 
-59.568 8.872 -36.211 0 0 0 
-58.698 8.817 -34.957 0 0 0 
-57.837 8.769 -33.755 0 0 0 
-56.979 8.725 -32.51 0 0 0 
-56.21 8.713 -32.675 0 0 0 
-55.453 8.702 -33.072 0 0 0 
-54.682 8.687 -33.239 0 0 0 
-53.897 8.676 -33.164 0 0 0 
-53.12 8.682 -33.29 0 0 0 
-52.362 8.69 -33.782 0 0 0 
-51.581 8.694 -33.842 0 0 0 
-50.787 8.696 -33.622 0 0 0 
-49.975 8.698 -33.082 0 0 0 
-49.17 8.702 -32.66 0 0 0 
-48.372 8.696 -32.353 0 0 0 
-47.583 8.684 -32.191 0 0 0 
-46.807 8.672 -32.317 0 0 0 
-46.05 8.658 -32.857 0 0 0 
-45.28 8.643 -33.168 0 0 0 
-44.497 8.63 -33.17 0 0 0 
-43.718 8.616 -33.285 0 0 0 
-42.93 8.617 -33.4 0 0 0 
-42.139 8.618 -33.419 0 0 0 
-41.331 8.622 -32.954 0 0 0 
-40.52 8.624 -32.382 0 0 0 
-39.704 8.625 -31.612 0 0 0 
-38.868 8.623 -30.199 0 0 0 
-38.059 8.621 -29.345 0 0 0 
-37.266 8.623 -28.824 0 0 0 
-36.456 8.627 -27.525 0 0 0 
-35.555 8.638 -21.641 0 0 0 
-34.738 8.649 -19.561 0 0 0 
-33.954 8.656 -19.195 0 0 0 
-33.175 8.662 -19.046 0 0 0 
-32.382 8.671 -18.271 0 0 0 
-31.595 8.678 -17.703 0 0 0 
-30.809 8.686 -17.115 0 0 0 
-30.019 8.696 -16.354 0 0 0 
-29.231 8.705 -15.613 0 0 0 
-28.451 8.713 -15.26 0 0 0 
-27.673 8.72 -14.961 0 0 0 
-26.897 8.725 -14.818 0 0 0 
-26.124 8.729 -14.88 0 0 0 
-25.351 8.733 -14.88 0 0 0 
-24.58 8.736 -15.05 0 0 0 
-23.813 8.738 -15.402 0 0 0 
-23.046 8.738 -15.834 0 0 0 
-22.285 8.74 -16.216 0 0 0 
-21.54 8.747 -16.925 0 0 0 
-20.793 8.756 -18.042 0 0 0 
-20.035 8.771 -18.606 0 0 0 
-19.274 8.791 -19.908 0 0 0 
-18.532 8.8 -22.214 0 0 0 
-17.791 8.803 -24.303 0 0 0 
-17.072 8.784 -28.41 0 0 0 
-16.31 8.789 -29.251 0 0 0 
-15.543 8.798 -29.638 0 0 0 
-14.781 8.81 -30.156 0 0 0 
-14.015 8.823 -30.385 0 0 0 
-13.248 8.836 -30.546 0 0 0 
-12.474 8.847 -30.499 0 0 0 
-11.689 8.839 -30.63 0 0 0 
-10.902 8.832 -30.667 0 0 0 
-10.116 8.824 -30.782 0 0 0 
-9.326 8.816 -30.667 0 0 0 
-8.534 8.807 -30.33 0 0 0 
-7.745 8.799 -30.195 0 0 0 
-6.966 8.799 -30.339 0 0 0 
-6.197 8.807 -29.9 0 0 0 
-5.433 8.822 -30.224 0 0 0 
-4.67 8.838 -30.942 0 0 0 
-3.904 8.854 -31.349 0 0 0 
-3.136 8.865 -31.194 0 0 0 
-2.369 8.875 -30.897 0 0 0 
-1.599 8.876 -30.895 0 0 0 
-0.83 8.867 -30.575 0 0 0 
-0.063 8.858 -30.137 0 0 0 
0.707 8.853 -30.163 0 0 0 
1.475 8.847 -30.035 0 0 0 
2.244 8.84 -29.943 0 0 0 
3.014 8.833 -29.798 0 0 0 
3.792 8.853 -30.027 0 0 0 
4.583 8.869 -30.924 0 0 0 
5.366 8.881 -31.08 0 0 0 
6.14 8.897 -30.741 0 0 0 
6.911 8.917 -30.32 0 0 0 
7.688 8.933 -29.535 0 0 0 
8.462 8.941 -30.143 0 0 0 
9.245 8.915 -30.659 0 0 0 
10.034 8.883 -31.509 0 0 0 
10.809 8.863 -31.739 0 0 0 
11.567 8.859 -31.138 0 0 0 
12.328 8.853 -30.592 0 0 0 
13.096 8.84 -30.393 0 0 0 
13.873 8.835 -30.264 0 0 0 
14.668 8.824 -30.878 0 0 0 
15.452 8.822 -30.895 0 0 0 
16.25 8.812 -31.699 0 0 0 
17.058 8.8 -33.065 0 0 0 
17.803 8.817 -30.81 0 0 0 
18.592 8.813 -31.085 0 0 0 
19.406 8.803 -33.131 0 0 0 
20.204 8.8 -34.434 0 0 0 
20.986 8.801 -34.82 0 0 0 
21.767 8.803 -35.12 0 0 0 
22.576 8.814 -38.003 0 0 0 
23.383 8.84 -40.67 0 0 0 
24.185 8.87 -41.768 0 0 0 
24.986 8.897 -42.115 0 0 0 
25.776 8.918 -41.934 0 0 0 
26.577 8.943 -42.224 0 0 0 
27.395 8.974 -43.342 0 0 0 
28.219 9.001 -44.644 0 0 0 
29.04 9.024 -45.815 0 0 0 
29.869 9.033 -47.355 0 0 0 
30.682 9.033 -48.202 0 0 0 
31.508 9.034 -49.467 0 0 0 
32.326 9.022 -50.575 0 0 0 
33.137 9.002 -51.626 0 0 0 
33.945 8.985 -52.59 0 0 0 
34.755 8.965 -53.822 0 0 0 
35.586 8.931 -56.072 0 0 0 
36.415 8.916 -58.146 0 0 0 
37.245 8.905 -60.988 0 0 0 
38.053 8.885 -63.17 0 0 0 
38.87 8.836 -66.475 0 0 0 
39.688 8.798 -68.534 0 0 0 
40.527 8.779 -70.856 0 0 0 
41.383 8.804 -72.747 0 0 0 
42.25 8.833 -75.828 0 0 0 
43.094 8.84 -77.833 0 0 0 
43.925 8.835 -79.338 0 0 0 
-96.74 9.125 -96.684 0 0 0 
-95.713 9.158 -92.532 0 0 0 
-94.493 9.205 -86.296 0 0 0 
-93.249 9.259 -80.693 0 0 0 
-92.337 9.268 -78.756 0 0 0 
-91.403 9.279 -75.687 0 0 0 
-90.483 9.291 -72.891 0 0 0 
-89.524 9.311 -69.467 0 0 0 
-88.369 9.369 -64.262 0 0 0 
-87.453 9.388 -62.577 0 0 0 
-86.451 9.417 -59.38 0 0 0 
-85.587 9.42 -57.591 0 0 0 
-84.776 9.423 -56.996 0 0 0 
-83.962 9.427 -56.196 0 0 0 
-83.109 9.436 -53.876 0 0 0 
-82.252 9.449 -50.868 0 0 0 
-81.355 9.464 -48.501 0 0 0 
-80.44 9.48 -46.767 0 0 0 
-79.56 9.498 -45.516 0 0 0 
-78.663 9.516 -43.829 0 0 0 
-77.791 9.534 -42.307 0 0 0 
-76.94 9.551 -40.948 0 0 0 
-76.091 9.562 -39.567 0 0 0 
-75.179 9.549 -37.538 0 0 0 
-74.355 9.551 -36.828 0 0 0 
-73.595 9.564 -37.055 0 0 0 
-72.749 9.561 -36.052 0 0 0 
-72.011 9.579 -36.576 0 0 0 
-71.355 9.613 -38.255 0 0 0 
-70.618 9.632 -38.784 0 0 0 
-69.72 9.614 -37.067 0 0 0 
-68.867 9.599 -35.954 0 0 0 
-68.002 9.578 -34.682 0 0 0 
-67.168 9.562 -33.822 0 0 0 
-66.312 9.538 -32.649 0 0 0 
-65.465 9.513 -31.597 0 0 0 
-64.693 9.51 -31.602 0 0 0 
-63.952 9.524 -32.086 0 0 0 
-63.181 9.531 -32.16 0 0 0 
-62.375 9.526 -31.737 0 0 0 
-61.636 9.545 -32.267 0 0 0 
-60.976 9.594 -33.921 0 0 0 
-60.305 9.641 -35.416 0 0 0 
-59.573 9.666 -36.03 0 0 0 
-58.759 9.632 -35.645 0 0 0 
-57.862 9.57 -33.962 0 0 0 
-56.987 9.52 -32.49 0 0 0 
-56.213 9.506 -32.567 0 0 0 
-55.478 9.502 -33.326 0 0 0 
-54.719 9.49 -33.726 0 0 0 
-53.959 9.483 -34.138 0 0 0 
-53.179 9.483 -34.197 0 0 0 
-52.403 9.485 -34.341 0 0 0 
-51.592 9.481 -33.806 0 0 0 
-50.787 9.479 -33.398 0 0 0 
-49.986 9.48 -33.057 0 0 0 
-49.184 9.481 -32.689 0 0 0 
-48.397 9.473 -32.598 0 0 0 
-47.608 9.461 -32.457 0 0 0 
-46.834 9.449 -32.63 0 0 0 
-46.06 9.436 -32.814 0 0 0 
-45.283 9.422 -32.93 0 0 0 
-44.497 9.41 -32.857 0 0 0 
-43.715 9.397 -32.864 0 0 0 
-42.92 9.399 -32.771 0 0 0 
-42.124 9.4 -32.639 0 0 0 
-41.316 9.402 -32.158 0 0 0 
-40.506 9.403 -31.591 0 0 0 
-39.68 9.403 -30.53 0 0 0 
-38.865 9.399 -29.657 0 0 0 
-38.057 9.398 -28.796 0 0 0 
-37.252 9.402 -27.835 0 0 0 
-36.437 9.407 -26.359 0 0 0 
-35.526 9.424 -20.367 0 0 0 
-34.736 9.432 -19.643 0 0 0 
-33.955 9.438 -19.366 0 0 0 
-33.174 9.445 -19.133 0 0 0 
-32.382 9.452 -18.376 0 0 0 
-31.6 9.458 -18.002 0 0 0 
-30.816 9.464 -17.488 0 0 0 
-30.028 9.472 -16.761 0 0 0 
-29.242 9.48 -16.146 0 0 0 
